ply
format ascii 1.0
element vertex 704
property float x
property float y
property float z
property uchar red
property uchar green
property uchar blue
end_header
4.853535312109332 -6.966560368882994 39.32610351686653 186 188 172
11.958426279643625 0.09178941961569334 36.406584022585484 129 131 131
8.52432529424722 -9.48962072369414 42.36027971503946 4 3 2
-1.6362032301973248 -1.7516968895917986 32.25185972713808 126 120 107
-6.682077043509694 2.2126748887752092 18.720258552122004 76 69 63
1.6067972019909804 7.130769761474571 32.67176043438114 227 215 204
6.569382061793373 -8.430336245673375 42.47414590441027 162 160 140
-4.798597617543396 3.0088450004153877 21.91374344563168 222 208 195
-3.956033177500697 3.933605456399741 23.970099395065247 148 136 128
0.028007778668800807 -9.316685689623153 29.767975309672977 129 128 108
-7.976769695873377 -4.793982094019229 26.12230059254961 178 172 160
-6.7587667846811454 -7.283876585489307 23.96220507813396 129 124 110
9.518939575154121 -5.190628016559468 41.254388101926324 128 127 108
-6.323804821254176 -4.148004375848785 23.337498817702915 213 205 196
-5.651013426216111 2.7301795142853837 38.001464260300025 109 98 87
8.38297099697287 -3.905026889499593 38.78186936562867 151 151 133
-8.230954534217181 -0.688852006304517 19.11093937976581 68 67 63
9.105635936964527 3.3656635574776117 33.11095662665898 169 162 148
-5.343549955376754 -4.335346657390768 25.85047061580513 220 219 209
0.5686472857854091 -9.98189087042663 35.98940376891262 126 125 103
-4.758569265800697 1.3919521754862672 21.709052996683226 137 129 120
-6.296981597702553 -4.025361735638931 29.383275684063932 202 198 186
-4.116901804550208 -0.48668127211196 41.70550481222616 160 151 138
-7.257234617644839 -1.3075122952574414 22.818907210700736 219 208 199
-7.498726655600714 -3.2291608813694532 18.296190978847072 149 146 136
2.317594272492846 4.011659643146257 27.673756663660697 142 132 124
5.788152387496249 -1.5443262542925802 32.38309628807235 186 180 160
-2.380429631268886 3.502567726611399 20.337649250939315 143 131 123
5.8748459002286 -3.8269856256755372 36.149416899153074 224 222 202
-1.7937569848848334 -7.590034499760696 31.673877497847737 112 112 96
3.8237702154319724 -1.5682745771358058 33.48881845073429 172 168 156
-0.32874915183082704 -9.447389506454337 37.3889534041597 239 236 213
4.66231717933027 4.022928405397084 28.52350179898778 184 175 168
5.603048890089284 -5.145392464243853 38.85726056562063 255 255 233
3.5727787928707078 3.092211013039037 29.255264376482188 142 132 122
-1.3114873622850831 2.6915068405482128 24.178801993255874 211 199 192
-7.034972890631929 -1.9707267179351886 16.487020381447824 139 131 121
1.57819278382306 -10.150348627999959 36.79201423903831 125 126 112
11.676664933224055 -1.2039153394001327 38.44888690506462 114 114 103
-6.573152263665401 -5.7276587147371965 29.67795168913118 174 169 153
9.683278485382809 -5.3439102619292065 41.1432532168425 136 137 119
-5.320331744487996 -3.4955967924085747 30.945055458244354 120 117 105
-5.137048591747513 5.229677282109996 23.796560270073005 223 205 188
-4.52938693706917 -10.042314908211793 29.909692394412364 146 146 129
10.144984702700604 -4.902717290538915 41.15971160104305 130 127 108
-1.0623519991996981 -10.096633512077679 27.812145633096854 134 133 113
-6.608841349927309 -5.131496835202552 23.49881118725826 182 177 167
-5.763940545641925 -5.840154228814393 23.5021478741825 202 197 186
7.701460815482341 2.996435315573397 32.78116712161219 254 245 222
-7.456055775684846 -3.1209869958693686 18.466543568938132 139 133 122
-6.765787757615463 -6.28141899172914 42.30467029135455 163 159 146
3.5548897566763387 2.354865479923776 26.51430796065229 165 157 147
-0.003817861857042675 3.9986902725962654 26.072627797563914 117 106 106
8.804974646128677 1.2705260538871657 31.791671733932574 147 142 133
7.87837857309132 0.4904303761878027 32.518047392460375 160 156 146
-0.8404926341172885 -2.621938102219316 27.449729642402296 117 112 102
8.006858266824597 1.139625987166772 31.754900707600246 168 164 153
5.2531768288597105 -2.0162599576293525 34.30505963975578 177 176 164
11.654094698016191 1.3250644105985798 35.15183689201162 129 125 109
7.138277539985275 -6.697059391358522 40.92401102253875 175 173 158
-9.452451077905314 -7.473131450735971 33.617750826477746 6 4 4
-5.662474391481584 -9.699337329409149 31.641304297908732 99 97 81
-0.7872162694942577 -2.3919888694631943 26.966673721262655 106 101 91
-5.79694220694715 -3.2936655634248675 21.53551530879081 206 201 193
7.2210021682115695 1.747805639951968 33.08977906410724 166 159 150
-4.99807172911471 2.0740439729440943 18.826371148994888 153 140 131
-6.388254149160401 -0.5889551069727835 29.483890121513173 174 164 154
-6.255062323221502 3.661232659026216 20.392715456505396 15 9 7
8.688797297794627 -5.10166621503953 40.2800783740268 168 167 147
-1.9659395891208173 -8.88895211521176 31.914668736341604 183 182 164
-1.9338508750367822 1.7689403561884105 27.64519112899616 136 129 118
0.13463153471800943 4.212779744537473 21.2746090756932 13 9 6
-6.606036918837785 -0.4088637858198307 25.332226219233902 135 127 117
-6.182425507481818 -1.7196744923882819 31.801520671598663 154 145 134
-4.663874845382136 4.221675941000054 20.751098801945613 148 135 128
-7.708399184428312 -2.515826464651906 18.576014265898113 149 144 132
6.759879672490003 3.5765913034120715 31.693382904935227 191 179 165
-5.9503370225687755 0.5359228625780239 19.384260827801103 135 126 120
-7.303790418343086 1.5204766594399524 18.140386021892187 9 4 5
6.210336700869159 3.0896849833426785 33.033836104530266 124 115 110
-2.2686945693628737 0.5824353291393605 23.380043666450117 112 103 96
-4.806699506849732 5.562019670104236 23.700571715107987 195 169 132
-4.638206555700482 -2.465695849485682 20.86698057522488 138 129 118
7.716570537350379 1.4267155383128682 32.15278885866301 173 169 160
-7.087218407774571 -3.136275874995277 17.675157650458786 165 156 143
-7.292708201192264 -2.4240815115588408 17.69158144147506 158 151 140
-4.01749243644419 -0.5465040205810225 27.93293175232669 131 124 115
7.767308025915182 3.983888030979461 31.824139641099222 135 127 117
-7.1459540564600665 -3.3495578293016126 18.419751073020805 145 136 122
-7.8912680829334 -2.2988263848232355 17.413659421459418 81 75 64
9.577614922277562 -0.5095978924280851 35.299528865908215 155 150 138
-7.137905247864731 -5.32594031937552 21.48939992901481 120 117 105
10.259091774249423 0.14611146785582266 35.485490227219884 150 148 134
-6.060893717820282 1.427467639591765 15.972074506722661 142 132 124
4.504065847796355 -7.49554580214193 39.07421852475524 187 187 168
6.54208844851716 -0.1477687369012551 34.80942894078208 216 206 185
7.847164594219453 1.5304486056795437 31.30648297462025 179 174 166
2.6734923968686046 -7.372085681981821 37.74932688010878 147 146 127
-2.184648044618503 -0.7820985532747776 37.95212897342329 137 128 116
-0.18795412618307822 4.167815168498101 25.0943446530753 167 153 142
8.469951070508603 -4.6875853895440995 39.78718985309727 146 147 132
6.9842103513695815 2.9029353511811427 34.61898806866672 178 170 162
-8.378005077907003 -0.5277084586404259 19.94644867589028 69 65 63
-6.0707184172961925 1.5143093224548225 16.01161082573301 149 138 126
-6.67767483656339 1.5437405541683775 19.02798963272795 138 124 112
-6.0105415715810935 2.8529316846537833 22.86034554912948 200 181 162
-3.6030482203697565 -7.941679061362153 32.68236996324147 174 175 158
-1.9990336199959393 0.6068115064864675 25.437268658224657 169 161 155
-1.5303311085973161 5.94814914876557 30.82949579303282 142 132 125
8.840394471620405 0.1560488767485344 33.87894085351966 135 132 123
3.8608623646853366 -7.310442295496274 38.467145598784185 200 199 179
-4.963892134262174 -9.785646170222657 31.497024615881607 140 136 114
-3.157993953453193 -8.079192506736797 31.14280151235943 182 181 164
9.760477571022742 3.537351057120617 34.41418343580469 145 131 111
-2.7361113485818054 3.3164433541656373 36.52221806564178 145 133 124
-6.158414970745809 1.0113716631540324 19.089144189347017 198 187 181
-2.9503182108748818 3.984189734746336 24.927734890824276 115 104 102
-6.2597784170450925 3.67592131280498 20.195087289945846 14 8 7
-1.00259746189839 3.597863337465576 24.825654719483154 159 147 135
7.425965121698386 3.568035154155269 33.222243032160236 184 176 161
-0.752305572644678 -4.326441646706477 31.240506742646335 110 107 96
6.729714500761387 -2.5916825618216595 36.63766723224905 157 153 138
-3.0305501481381114 -9.586364501654362 29.72728066639331 139 138 120
12.190994287237569 -0.10706881054600276 37.18845147496628 142 144 132
11.104172350509808 -2.791688396534639 40.06442166920497 96 98 87
-2.731435669919503 -6.758161134999702 33.689304376475235 87 84 71
-2.14861771685142 -5.232900019247231 39.42484638659254 102 98 83
3.076942080415916 -9.745933541010839 36.38455334474411 15 10 4
-2.0664793562410275 -9.785212205039853 28.592153722035942 118 112 82
6.186798206487272 3.6129085379690586 35.07438985932369 167 157 144
6.823089598358814 6.761584771022405 35.064264978280434 192 182 180
-6.884630334667225 -3.332625756331056 21.331824310627006 195 188 176
-1.967926647449447 -0.5743067294190989 41.77235736082233 135 129 116
5.132043292858879 -7.330665465206011 34.94192969338443 172 172 155
-2.608473044582373 0.8185766512257696 23.713319779151508 155 143 134
-4.721784464415897 0.009067970803298863 33.01964993240742 153 144 133
7.843691528033582 -2.070064567078452 37.37299325023858 216 212 195
-0.7872162742209967 -2.391988867595874 26.9666737573537 106 101 91
12.849083839550408 0.9919512735073452 36.297841363549665 3 0 1
-7.9625616019453345 -2.5402465505891763 17.496761183659764 83 77 66
-5.081584886288958 -2.380501589908527 21.960009889119693 193 188 178
6.4848354662933225 -3.281287726794441 37.23717500254339 248 244 224
8.6950133245399 1.5730315340304493 32.673430594881395 170 166 156
-6.234094542922514 -3.026031878472667 29.79776455232686 216 209 192
-6.784132318815172 -3.755619829617887 20.923591035032988 209 202 189
-0.10247247603562276 2.711738135140104 22.616932819175197 169 157 143
-5.699312301330184 -3.075007573840736 21.44307000724113 132 126 118
10.991046767396542 4.706716409785127 37.13774626532143 164 154 134
11.775864855671415 -5.035193969408937 42.768946508310606 114 113 95
-3.80479689908733 4.733313916633403 43.00136496794786 157 146 135
-2.8999122225050633 -7.735033694780562 33.3395545532299 163 161 143
-6.037588161019407 2.3994990722549305 20.4479657159731 138 126 117
-6.357199416703839 -3.8381219456470936 23.08019513496061 199 191 181
1.0886251823786 5.892044509520946 28.386856088836126 205 190 183
6.029824520720046 -9.971973865905222 37.20331379550976 110 113 93
8.601783998013845 -0.8547094736429052 35.28900594969254 131 129 120
-5.390377891003732 -1.3226694053690071 21.92132310272664 233 223 211
-5.2163710120307645 -9.151053511856368 25.663252726654445 150 148 129
12.151066764463607 -4.434946765433135 42.04824257669082 142 139 110
3.4062394808025496 2.9157161413462154 27.52098693679523 147 140 132
-6.676721346862174 -3.5726977167793246 18.343085496152696 195 187 178
-2.962265015273898 -7.67997038267317 31.302525151407927 163 160 143
6.719350805004066 -0.2772920204352071 34.54887736885143 199 194 174
-1.1207339665334173 -10.001441793545748 28.456270789976184 136 129 100
4.616714850713793 -9.77255040929625 37.291281253681426 118 120 101
-4.9616180326913035 4.195612593673224 40.8633876754444 167 155 142
-1.8662244919100226 4.915901907120004 24.768248012952224 126 118 114
6.134931536410588 -1.7773451547118007 34.448776996911306 185 177 159
7.551257103151606 1.3558333085080727 31.60342065347073 175 171 161
2.16925147247272 7.34129626563874 33.06975309860933 173 163 155
-6.099373645479394 1.33925613702936 15.991609884433913 118 110 104
3.432911279849352 6.315371212373582 37.730832206561125 254 241 227
3.5922247716521025 -7.028011583885098 39.26529982969317 120 121 107
-5.941171955318503 -4.5593114618995125 33.371300128028295 152 146 131
1.392447637048442 4.953764429760607 29.365397127934315 163 150 142
6.201382915250139 -3.375174024326853 35.79866730086206 247 244 223
-3.2815731048125545 0.6803602278892326 29.70533872704572 234 224 212
-4.1140650703391834 4.733515130020046 22.132538280315146 222 198 153
-6.889045500009702 1.3460420242600089 19.450774762550108 112 101 87
9.81170314081077 -2.3991597869950074 37.24290864548722 121 122 108
-4.278773606664423 -11.397010859446064 33.001689531166754 140 142 124
-5.147923728165306 1.9896599282145027 18.735489566663013 120 110 107
-5.92868156176289 -9.885398470897048 28.891151795704605 134 132 116
10.020039150098949 1.1323880977146994 34.7384172410856 146 143 131
-5.489605570872993 5.089295306060832 22.546373217151363 9 7 4
-6.549416297549419 -6.079737235815073 28.653515511544704 172 166 148
0.9661064025643066 -1.9726176300666445 29.91628187323733 134 129 121
-6.892772234795324 -0.7546168142003499 19.205405199726265 163 155 149
-4.1787063755668425 -9.48388883333377 34.13302941526793 207 204 184
-5.554844720561744 3.3718496984699278 22.866042774696744 143 132 124
-5.307589886391219 -0.4667503597888802 33.310789480807735 141 132 119
1.1769479557913771 -9.951042299563778 30.016468860631637 134 136 117
-2.0996460806898565 0.8051626843478183 25.579456290740918 155 147 141
5.995325234387107 -4.221538327563691 37.79649066865591 135 136 120
-1.3903904469803077 -2.0052877970758813 29.19649547663307 124 116 106
-4.993106093934977 -4.916450032626395 61.140193685818716 173 168 154
-3.7799087388294663 3.22313682466489 17.377275175492375 8 5 3
2.0266828509496957 6.231348109599273 26.866009885070596 175 165 162
-7.210259175727187 -1.6289790610016854 15.647507798937376 96 89 75
3.456545070545384 6.032896445845297 28.1336457944203 8 5 4
-5.7122907355900825 -6.8545176530507215 64.51267712206945 117 116 104
-6.979992130368363 -1.185429437920916 14.807086595302307 132 122 112
-8.053566508029675 0.7761919143355701 19.239430676859367 14 5 5
-6.2695906182042975 -0.07059335218029575 26.8138202079491 152 143 131
-7.405389295328824 -3.74016535629623 19.076683322163902 147 141 134
-7.836845709704005 -2.2008808616174274 17.487421863786853 66 60 52
-7.195553763912896 -8.211366139570725 53.296110836792984 151 147 134
11.39507408669742 0.27018807305443093 35.62833499857228 113 111 101
-7.46461170583746 -3.6651934487273303 21.082552070018384 165 156 142
-6.663645144705117 -7.854611161374035 57.65218813452519 115 115 102
-2.723621774137989 -2.49557173137919 33.08079772002397 97 89 75
-6.764793466444942 -0.7250911455147061 16.90209026400152 176 166 161
-6.287184855378154 -10.664587364722138 27.85188781348767 109 107 90
-7.402537830364039 0.6373179075666601 17.453446509595945 17 8 4
6.769705689001067 0.20516060587953153 33.95139512271184 142 136 125
8.900065308855071 1.9879044882464179 31.035345294991778 177 170 164
5.386129130724663 -5.707195844108279 38.37419383912593 160 157 140
1.2235968941959348 -8.812856386478952 39.62261896043686 85 81 65
8.843467172258 0.2115130400145098 33.937466412806835 143 139 130
12.901027827534115 -0.05916772855124847 37.25148022907334 156 155 146
4.869184253821871 -6.096822149000129 38.2938042306635 195 193 178
10.88614693801011 2.2729181695572382 32.11304083172893 231 221 200
6.643573072299531 -2.773202532556119 36.96609116009583 183 183 171
8.81535303915257 -0.5995286727751851 34.86698514908884 149 147 138
-23.817491274113184 -49.999401314343 249.04358186390485 97 93 78
9.01973677612245 -5.428543218371277 43.541728322246406 161 161 145
-2.463858062629369 4.255090142302819 24.485393053828272 145 134 127
8.161478246763094 -4.554922729569909 40.4811682973745 148 149 133
8.904804224249785 -1.0599767489666274 35.503413356315164 155 152 139
6.565221625595452 -0.41690151383084206 34.27210688512569 181 174 161
-3.583422259769397 0.041479710998941426 26.202800044437787 209 200 188
8.805038799395245 3.8900841289517203 31.07702929842403 130 122 117
8.846951789516767 2.8661147771183773 31.695450175459168 237 228 217
-6.824780242599933 -2.8564926944399613 21.35693150737663 204 197 187
9.521784567633253 0.225874990216456 32.29581181259459 157 152 144
-7.299993216316713 -2.5737850606715145 17.938736068413338 153 146 135
6.818520809805882 -3.1191988863812177 37.0776832438088 141 136 122
-2.5484160234864044 3.8451687015408327 24.524862377810123 236 221 211
3.405598926644559 -32.4903113632107 172.00133647772196 121 120 107
9.138530287527413 -40.36333849693236 276.07034903194136 138 135 127
-12.870558777406924 -44.31354272736411 219.82233343655597 92 87 74
6.627285892748011 -13.416426333847397 62.115669810395 131 131 114
5.837626112995087 4.105704015588578 22.630724706623358 184 174 172
9.000466488607637 -0.8502731902485036 35.29238645919886 132 130 119
-15.218514735190865 -45.30899839641191 210.37478394737263 195 194 177
-1.4006847363740866 -2.737570318929876 28.476433652146184 89 83 74
6.299350847136724 -13.158015098513395 66.78297529819679 137 135 119
8.692260212169606 -0.18051525777871344 33.88803192497237 165 163 150
7.905031795160125 -5.242845037606071 45.89978550082097 151 149 133
-1.5122297604050867 -31.370037607765752 149.6839922877431 118 119 106
6.796510462152487 -14.35296771531153 71.48262897586537 221 220 191
8.221173772354765 -1.2437109957186543 37.38923894814215 130 126 117
-6.280587205255113 1.0017167934501685 18.067002155230433 132 119 108
1.2823973259882209 5.518715457039628 30.065823781855688 167 156 148
12.809360085348818 0.9320850255833818 36.61807021750533 7 2 0
4.382400836619056 4.073841581833977 28.968195672753875 161 153 149
-8.561146858534359 -1.5825524864762845 22.01393045351147 137 127 114
-6.638681985065538 -0.2811234504954201 16.05049721364092 207 199 189
-6.818230097132377 0.2411175782567798 17.01074508248301 226 219 209
8.8364276158348 0.6150103630921404 33.33807576795687 145 143 130
8.785459755282957 0.8118508776361664 32.88746217149592 166 164 152
-1.7662233631214745 -1.7262838240338623 28.392352800332006 122 114 103
10.44058981086561 0.39025582857683766 33.11179712329395 144 140 128
-5.015302109629477 -0.790873379506914 27.270561827490614 153 147 135
4.955025381671056 3.0594008499110146 29.529286879452833 142 134 128
-1.1854497922784286 -2.088769653806851 27.949072635099125 119 114 102
-6.5952657365613705 -0.7112192192600291 13.994620910165677 184 178 167
7.807664209948271 1.4874474220100138 31.14792783003523 179 171 164
2.9022475351841472 1.9080616176924923 27.260914772428738 237 225 217
9.292241469167562 0.4527324742736305 33.06714057037774 144 141 131
-7.087944468352553 -1.5670398972217943 17.20793925374322 155 150 138
-2.1801637740088267 0.9397619266660105 23.9326593810894 111 104 97
-1.875345475411984 1.3336051286211077 23.737125212466825 150 143 135
10.394739317365852 -0.8472279382853721 35.45071467850202 116 112 102
-3.167420180988347 -5.13330594945706 35.648875377134516 117 115 98
-7.296895757873141 -0.060809831476917715 16.642832622916064 121 115 108
-8.016490529825967 -1.675489634574323 17.570397644950955 65 65 60
-7.258176675565785 -1.5127169053914769 15.43571598815968 32 24 17
-6.7439934049162416 -0.17062294057981828 16.24112685616399 176 165 156
-5.679698370783368 -2.7444131201677813 26.207495403636795 238 233 218
22.89491963671346 -5.789717390370074 86.87895592056547 124 123 112
9.387848116953892 0.048279340787731356 34.42188293241474 158 156 145
8.927382947533548 3.7879362673351222 30.043046605886488 141 130 118
11.888872150046874 -1.9332486128598128 39.69192919820739 116 115 103
-0.6689027673858473 -1.6819474922695097 26.505226401560165 100 97 87
6.533408498587306 0.19583355788867013 32.81041710744447 170 166 153
6.6247079968841796 3.1585915433089924 29.97202524575022 222 208 193
-2.317862352716136 0.9109092904551284 25.05568326162208 164 156 139
-5.573578223015418 -4.055688735158357 28.52713276312248 141 139 130
7.360909250543825 -0.25183232597816374 33.79139832623343 146 145 134
-6.818230104781971 0.24111758045168913 17.010745122053606 226 219 209
-2.503178724512435 1.4183330544758963 25.786626536718035 113 105 93
6.491241291320119 3.321835891886951 30.56738143416784 194 183 173
-7.2618798940917335 -3.237852955996605 17.64075409591106 144 139 130
7.592291101472435 2.7159321884918515 28.579016192795603 255 245 223
-7.0823220047563105 -0.8856864487149144 16.0983987558101 197 190 178
6.903089830223401 1.1227258301937764 33.92751540862712 143 137 128
-1.189059801049466 -1.717846434511192 26.221089378084475 107 103 92
-6.485890670131619 -5.465949401835726 26.976697185470016 170 168 152
5.4053140954034715 3.6732193961613335 29.28059200079607 184 173 168
-7.306181668983989 -1.9993507550611576 17.987851357986244 140 134 120
-4.975179264323114 -3.2126149191656124 29.063053782069403 135 132 122
8.519941466868337 3.1131044996237787 31.735519767979824 184 170 156
-6.3302321009109175 -3.615905708259949 24.10334711786675 202 198 184
4.975290082513555 2.7731652534983113 29.303728784447255 160 148 139
7.922276307697695 -5.535477445445032 38.865445665163186 139 137 115
-5.556045245018135 -3.72716047938698 27.164072347672075 137 134 118
-1.825718854781996 -1.3447393500312639 26.135856962036762 124 118 110
-0.08613753666116458 2.6491057961174946 26.975493190394786 233 223 212
12.632506274760825 0.9067157809179672 35.661361461573 3 0 1
4.388886472226081 1.0407713141501327 26.968331181291212 142 134 123
11.663350561434475 -1.006210440209914 37.703959423971845 116 117 106
-4.9247190083057175 -9.890801481881025 32.65088374145819 143 137 119
-4.062470522801353 0.5584086712578924 30.09986548117346 183 174 165
-7.279762204949468 -3.2466407292143513 18.147484526901778 142 139 128
8.716253377554738 1.6499336305728167 31.841213663288652 181 176 166
12.683168455383539 0.6144302536600055 38.92370723954789 113 111 106
-4.511372086956281 4.387377112337502 23.611992606935956 150 139 133
-6.355064269330821 -0.8525596541635898 27.93779012163171 176 166 154
9.12706983827329 0.6211768799978018 33.45349960562099 143 139 128
1.190865611745601 4.385733594221172 27.25439388596772 235 216 195
11.29746999865323 1.4629683037988168 33.67014277789783 120 119 112
-0.5608522252358769 -4.282661345019681 24.944770065703977 168 164 147
-3.54917567821876 3.475019626174063 22.171548886060673 108 100 97
0.2526121088968772 -2.311201787281204 26.77225649804726 115 112 101
6.182642844065658 0.7729299279928048 29.95843983915493 153 149 141
8.351751798127793 -1.0615107867342275 35.1938536738396 150 147 134
-3.7227279288612594 2.2146341813035435 19.661117679521062 147 136 128
-4.675939970591717 -10.196421396820625 30.53234850935748 155 156 138
2.7926470321321433 4.593062949267464 26.837825264206163 179 168 164
4.31665382385215 4.123316021490964 32.98617702552795 160 151 139
-6.867168519492955 -2.90371784227369 19.323269210044412 210 203 192
10.399380311767064 2.942356502280367 34.35045749698166 249 239 227
5.808203121026268 -1.4947643537107673 30.20600134078335 134 134 123
-7.813227677113928 -1.9385148505310472 17.700425297831103 27 21 15
-6.177081080253489 2.411372818190595 18.033679721076172 224 208 200
9.319270649667942 4.211973881849113 32.61409240451941 130 123 116
-6.969594139441162 -0.6296333451819903 16.192686037486258 155 150 150
-6.354469667332857 1.1179589483519983 20.05461588392796 198 187 181
8.87284332231313 -0.7429719744310189 34.01652118070753 151 148 138
-4.130306906219098 6.408629931165769 26.028042101175753 7 4 1
10.645312671496567 5.633793613969859 36.33599054173112 164 155 152
6.926978084012068 -2.336333320865261 36.3820559695679 212 209 190
7.4056855057171695 0.3524890141487872 33.58128590029232 157 152 141
-7.6955110549170165 -2.6279263525026275 17.203338217370284 101 95 82
-1.238332921796632 -3.5788728563552725 26.676175446757476 166 162 147
-5.14989364829566 3.0588865289698406 20.463516629902955 151 139 130
-6.730006715548241 -3.5173620605755436 20.010197469080097 191 185 172
-0.8717235526936422 -2.5331485551900497 29.10266953963327 113 110 99
-5.292236679291161 4.224808749103993 21.255706276308242 222 208 197
-2.8245746629275903 1.8360818468322062 27.891651079431043 103 95 87
-2.5483003165392644 0.8539687630370995 26.537196951150296 138 129 118
5.2585393192464025 -1.8715226327472014 33.12359833842426 175 172 159
-3.075978454796737 -0.29719110547981487 25.541186624901012 158 151 141
-0.9507970992484435 -2.1664475714835216 27.380978396079467 116 112 102
-4.437528272888159 4.9553402301943645 22.011577673865954 214 199 185
-6.4758438194852905 1.8511027238132944 17.602668722513094 106 98 93
-0.9507971038812593 -2.166447571604062 27.38097831266742 116 112 102
0.912308051642537 0.9534330376813759 24.855987823440856 227 217 208
-7.324616918971753 -1.51779837079466 15.591552217597165 26 18 14
-6.5220546097446235 -0.6549128532124501 29.74003515531803 142 138 123
6.395932402512571 -8.294933279414858 36.10607967007588 125 122 100
12.153282152661285 1.1731325939674313 36.379653672790845 144 135 111
-5.802392329409033 2.9849407938807437 18.54442822511476 151 139 126
-7.970460021786539 -3.945586080152568 22.498053964441734 118 113 103
8.220080175109787 -1.469158588774354 34.34908522024128 125 124 111
5.719438995403272 -9.14458883540546 41.789077361253526 117 118 98
-7.80950572682822 -2.881882247628781 17.507295992143177 103 96 81
-2.991963006682728 2.474095565062036 35.31675245705906 96 87 76
-6.614989240829703 -3.4101786182478397 22.17437470156381 195 188 178
1.7676305035663609 7.919196405347923 33.49991628102212 228 212 201
-6.106948967478019 1.3077564405030733 19.97731446738495 208 198 191
2.35162365699293 0.4010923870910572 23.310391500134386 243 235 224
2.6867654429735452 8.726274722747844 38.77161927146437 173 160 155
-3.7202949570366597 4.191540016337771 20.616937522787275 168 155 147
9.458260712488325 0.2835131922745459 34.77009678850374 136 134 124
12.061733404850797 1.3770298900389644 35.61376337580435 150 143 124
4.9899713937229135 3.5536876195476754 23.945900812182426 6 2 4
-3.8371418447025567 4.094725434878968 32.24796417637761 187 177 170
5.655075108165699 3.6266820658019 32.39012425111255 141 134 128
-5.513681807794319 3.8832150450810974 26.570597597655393 229 212 188
-6.78200768735097 -2.955085624839164 18.36646662159258 211 204 194
8.319383745699765 -5.71521394370532 40.20412214452751 149 152 134
-6.8229890150634 -0.3411234659300717 17.18760542944361 139 132 129
-2.3972438050344955 -0.0313628622824589 24.78587148936862 126 118 112
-6.916976513493526 -0.7400182823119172 17.186032280977464 208 199 188
-7.553875279457088 -5.862038466189054 13.380366203800147 23 20 14
-6.805601296961911 1.4825121041131144 23.409094929588395 204 194 186
11.340844613639408 1.5142823338441087 33.797857879175766 121 119 112
-6.094968018812731 -11.47547882447035 136.37426651242518 10 6 7
-7.125073075635177 -2.689636617834596 17.035926358828444 162 154 142
-10.681626523359313 -0.18685195928374418 29.180795355792597 8 1 3
7.782927578478377 -0.5020508724035347 37.312971381762495 201 195 178
-8.025324093993355 2.0849240861086376 24.998980673120844 19 10 7
-4.642859071692388 4.948554271889055 25.526558007329932 175 162 157
-2.6183984098083557 4.827378882164126 37.57337272257868 140 130 127
6.126888721917834 -1.9353155119202694 38.3435887366038 162 159 146
-5.854266668482969 5.200165903459458 23.13704195824192 14 9 7
5.005599102493181 -5.068539863575238 35.6610944424921 255 255 233
-6.82377177228413 -0.8584465488638978 22.57894437627092 211 200 189
-8.518495981556734 0.3399783668839649 21.075150355420387 106 96 81
-6.804042203665253 -2.8082589259732096 15.611173359748166 183 174 162
5.8906267120889755 3.4614128460221716 30.842675645763176 150 142 133
-7.049619340108312 -1.4005867816960402 18.777088351564174 153 144 137
7.182595118916305 -5.701507569676179 35.64907479771495 151 153 134
-6.960477069608664 2.851554457864633 19.10064581198166 13 5 1
4.9242898562533 -5.094441080298644 35.45822869126988 244 246 226
7.360838599957633 -1.8213492268395577 37.576918583128744 233 227 211
-8.533281659244102 0.8691630827775377 22.780036777809855 147 140 130
0.452140902089712 6.24691952176563 33.80427789086546 159 145 137
10.813659543775014 -3.533929094628606 40.505824034970466 168 168 150
12.14623047661047 -1.3629466199363782 38.6063406128009 145 147 130
2.6962482977511537 3.703984444053002 23.92442398132477 8 5 4
10.339760644789232 1.6192689024816371 33.20445582246171 152 148 138
-5.550819225230265 -1.1120796793142613 31.98727785758942 141 133 126
-2.5392825673261146 2.5409187745749806 23.46884874227661 223 211 204
-5.007645747817429 0.16748474797896526 33.68981697258848 155 145 133
-1.9727704877582015 1.1306279311029954 22.71289201166308 157 146 137
-3.9027706828572004 -0.5638566276372871 28.13309070516725 131 124 114
-5.498563964872566 -2.974939958816949 21.69895288946329 158 148 139
10.315074323405629 8.795034235927076 44.538939590432015 222 208 198
10.354610483478805 1.654654279709314 33.33164864996529 154 150 139
-1.8772874788642446 7.845605292165685 30.925862025703555 141 130 126
-7.670194494257712 -3.5954427629978025 18.239702873954226 138 131 120
-7.228454552384365 -2.183437857530023 16.9494648793802 168 157 142
-0.2531983591909378 6.88058637280894 33.83686202216733 159 148 138
-6.666374354416702 0.06156467366024655 15.547550556368162 225 211 200
-6.547371344753957 -0.0008367172153622366 16.10558468301146 207 195 189
14.235299474593631 -1.3472446062666392 38.31382408414831 2 0 0
10.255754364007098 3.8579423900400447 35.77105289712919 140 127 106
5.1281170920243495 1.2240104067366742 32.05111032810372 250 242 225
-6.283863062891636 -6.519062713093038 36.01957854065062 164 160 149
-7.264748106221241 -6.127629640627772 56.68543586417825 164 161 147
-5.842179919484329 -4.585432939269736 37.1055220241558 152 148 137
-7.7128042894452395 -7.685068348929862 40.943237031251314 136 130 109
4.510296541615859 2.4250514993377887 28.38659776041399 154 146 134
-1.4660581301342277 -11.17558589230433 37.788655422724744 129 123 93
-6.610115429504819 -0.711946414434121 15.253867958598013 131 121 113
-7.317973340398488 -1.9170341051162227 15.024278265460497 21 12 8
6.512927994898355 -0.9436305128948924 34.898903117636095 145 140 129
-6.733847854440449 -0.33264571127281917 15.748853060500936 184 171 158
-4.866784302897296 3.809465446199432 24.985807586739508 223 207 195
-2.3165783669806816 -2.5135969814802817 29.28279007881841 90 84 69
7.374196171696082 -5.635701187260954 35.954910789387114 152 153 134
-5.886689229249008 -4.5221234963131565 36.015165018736226 131 126 114
5.551379837111958 -2.5973695953566303 36.32812466927152 158 157 143
7.319192500807557 5.912405855963368 33.69088597494675 201 190 189
4.220415595556605 8.484356334067401 38.05927465759597 180 167 159
6.296438964258012 6.678606370395006 30.974621616857394 10 5 3
4.458500143993138 10.77386444707928 40.35050297001276 174 165 161
-6.748729559240528 -1.5491205538281505 14.605554563334906 126 119 110
-0.33909694219661507 -9.211575069245693 28.67158663861321 133 134 115
-7.2151063318316675 -1.9187282283271094 15.225374412999845 85 76 61
-2.4866960038505037 -0.09835509408037142 49.65885655277236 104 95 79
-0.3230010188247938 -10.5200704304033 30.00043104492545 5 4 5
1.737257094421615 -4.020531048434252 26.186380450831628 122 121 109
-1.3256059734316838 -2.0314213748003125 28.806308451767066 124 116 107
7.552481833465897 7.705466074141184 38.82633941566087 187 176 169
-5.758606367889762 1.7717190833581145 27.833230776874725 154 145 135
4.322895909284694 -10.044548209786468 46.996930644147085 223 221 192
5.85480052188533 -8.612140098861374 34.078684668470046 141 141 108
4.591607242371331 -8.582333650923843 48.1261208352659 119 120 102
-3.9629667693081627 -12.299564617491914 40.90061369744549 136 136 115
4.047421774198485 -8.81247568105997 37.97614521446735 130 130 108
5.060983096670369 -10.789234201636855 50.61507227679511 234 232 205
7.208612182369499 -2.338672358681635 35.055211529077205 213 210 194
-5.524868300402015 2.408427776643816 18.55762329734568 142 133 128
11.580693597875959 -2.569767581291806 42.55254460996243 80 80 73
5.313133720565591 5.084663444432386 28.80235642741072 192 181 179
10.991314091765926 -6.6454461531770175 50.5986414886566 136 136 116
-3.4117056615987664 4.053234837421808 23.354439483667694 150 138 132
3.666077172197291 -0.2619849258905949 28.69844437404333 216 208 198
11.433988037363548 -4.739495553133869 41.37492863016923 138 137 122
9.757243217689686 -2.6398961181016634 37.58994351471313 89 89 78
7.159050597330177 0.6740192637430048 32.42072803324108 149 145 135
-6.242600091271678 -0.6939246526820978 28.10940666504668 172 164 151
3.220437568358182 -3.2471602085385594 34.5461062259521 123 121 108
7.188994849592736 0.7386870525242619 31.565010779934514 140 136 129
6.553613633305994 -0.4361017314385564 34.17736013044049 180 175 160
8.02893705462239 5.282572509703113 31.663748300493243 185 178 176
12.74915056339381 -2.517687411746414 42.81286002175799 139 137 115
8.51260823375355 7.725270636480538 36.50534373172895 7 3 4
7.373485224494843 3.942535632751934 33.32899809287278 186 174 159
-6.6990361934013505 -1.290287343337755 17.37319423601201 146 136 130
9.833443806631259 -0.47665845435429394 34.032650071166174 145 142 126
10.4154861708619 5.829764762371108 34.46221481460232 175 168 171
-5.38292592300242 -8.643605902349186 21.716341282050777 118 119 105
7.8214020572616665 -0.6451804692367674 35.303818895366284 142 137 125
3.804476234453887 6.061900882706747 32.044565346332654 173 164 162
12.108170208589526 -1.339241341571741 38.33617281420875 146 148 131
10.030248371296679 -3.8394924808683113 35.97665919026214 183 180 156
-6.996793075943605 -2.7252044351583975 19.10593368872055 209 203 191
11.25757273374417 -3.861573068793894 41.153793385635716 170 168 149
-7.16188853119943 -5.494068622631678 16.6604818995352 113 114 102
-2.153443444132254 -0.8077662180534368 36.401315962455364 135 128 115
-6.790474768173129 -1.4607646970023476 14.894232368454 128 121 112
-6.306279074608203 -3.0059810577289587 31.280918661962577 217 208 196
12.001623337123073 -1.0464026599867384 34.90187159646166 125 125 112
-6.405113707792743 -3.907928313484652 25.903162759247003 205 198 186
-8.581451162987705 0.005064357738741968 20.75786446079951 84 75 62
-6.87248396498545 -0.34021106418967106 20.634455471002973 153 147 141
1.5726253540716597 -0.788745139642828 23.47646032052414 224 216 204
-2.9097750710692503 -9.113793423663106 31.15826350265662 165 163 146
-6.931337299812287 -2.729862888393848 18.539412292789528 204 199 188
-4.256636693140285 -9.179496553945961 32.18245273391314 203 201 182
-3.699802598635162 4.224270691244925 20.73576013987349 167 156 147
-6.730609100654843 2.0263293834925458 18.899311365669067 78 69 61
0.6037122886145523 -9.52846833198915 29.6441366699213 119 119 101
-4.506412978392618 -10.487574336322844 27.45107644895937 130 131 114
-6.39465020639727 -3.4937048574445333 33.004727651476756 199 196 184
-6.324746878050044 -6.1401280803575125 37.067187084864216 158 156 142
-4.09331221706424 4.2001140052175945 24.678359090577064 145 133 124
12.504082874517097 -1.93297404907842 37.27687275395999 124 121 99
-2.238919937817562 0.9263734570236161 26.365109978958884 146 139 130
9.170311025523882 -5.179698696593342 36.82604421569331 122 121 101
-6.50551846179199 -3.50739787960296 25.660906452530003 193 185 173
5.612966501500829 -3.910116575559761 35.29776519842717 219 219 199
-5.671421712591438 3.208903341842226 23.244564393419505 134 121 116
-5.391188165407047 -0.3274450659182103 30.252380825806362 171 166 148
-4.748738475674711 3.295597298082836 38.41122873083905 137 126 117
-7.882123947565611 -10.78001753026567 50.976093312183295 11 7 5
-3.9824534827259157 1.504599653145771 35.6092858150378 184 175 168
-2.0351670156135437 5.508018305276773 32.8113132976597 203 191 180
-4.694313983556595 6.215252939261139 29.3026099893148 173 159 153
-5.092169318724721 -2.5263098492847043 21.325155950503248 144 135 124
11.048583495659 -5.002053227076686 41.62272581094169 117 116 98
8.858064540460337 -1.9463382111529577 35.6178823829231 130 129 113
-5.6287962992005145 -1.3478963568683342 24.996111633303457 155 146 138
5.324256017234454 2.4193503817090796 31.270197645910123 169 159 144
-3.937267568586612 2.7241147563834716 17.15765283429318 138 129 123
-1.9322424500645585 2.407728811399663 27.809018645125125 126 117 112
7.219762387514624 5.494173974772969 33.421880064390216 207 197 173
5.172754794869046 -5.071251334404659 32.216052881302346 153 151 132
-0.15759147030935722 7.355262853271851 30.133743820579735 156 145 142
6.697323199012162 -9.705837327601746 43.61445784105594 125 126 109
-5.428020211961335 2.283995808932966 18.280718064803267 147 136 133
7.644875178579046 -7.925968046194689 43.81185727714778 194 194 172
8.016463882721665 -5.284658180527217 32.185867621690306 116 115 97
7.188109377346739 3.0211416057323723 32.57171025413675 241 230 213
9.492789838692964 -3.0943896983214914 34.246196891852264 129 130 115
-6.445777137280922 -1.750992430491945 19.73530809429295 223 214 209
6.664226727734669 -5.731604860096755 34.30905165779854 154 155 136
-2.783477032878681 -7.199773539396278 28.506555355463497 193 193 174
-4.375106353119572 2.746109746778499 19.125251155897768 198 184 174
7.5925593907705755 -9.356451734529099 44.49655434375139 118 116 103
3.206608516328677 6.676951518573958 37.469182107133655 163 153 143
-2.716306566586744 -9.761332900022605 29.235241391775297 148 148 131
-6.683267652805739 -4.790623859361636 22.43964222130902 179 171 160
-5.134954510946828 -5.388203216983466 22.98828228742466 134 128 116
6.902556871397645 3.091337492249674 37.39751107974756 182 174 162
8.05294886543919 -2.094600943493454 35.2470329321107 113 110 96
-5.738524172798644 -1.7635501628650834 21.117917688622157 221 210 194
-6.135106043450721 2.4843303105098866 19.186941014069035 130 120 113
-6.93424535868292 -0.7053369541394748 19.965723567174066 145 133 129
12.129684525446255 -1.4992769838317275 34.48970368000442 111 111 96
9.396143873145357 -5.501045750923703 40.852956703331415 141 141 124
-8.25317940755884 -0.1349673787475874 20.315107867025354 82 71 56
-6.690890659014444 -6.3518821320802425 24.54444796100856 173 166 152
6.334457943473533 2.751381317984992 33.04233659797271 148 141 130
-5.034829155494231 2.3373154508169174 25.847030822949712 143 132 123
-7.059018196055942 -0.3169114632288588 20.535487886171296 133 124 121
-3.8484678460022383 -10.074535174358621 31.559543501146862 167 167 148
-7.148590935659837 -3.2625456235539736 23.747884573776236 206 196 186
-4.037003870451873 -8.03108568562831 26.616205041764804 221 219 202
11.306626114490607 0.74276483482374 34.536473420560284 115 114 103
7.904601075237958 -5.507144201331998 33.7449852294319 118 117 100
0.13989297022286515 5.223201248914613 30.35501069082397 159 145 137
6.78888525994266 -0.840822195689083 31.548234506333113 156 151 137
-5.437901121703366 -11.831578447627537 27.67847803530912 11 7 3
-5.877884574696473 -1.5455024867865435 19.415909879823047 126 117 108
9.218367606768904 -2.909168620800207 34.1399360718497 124 123 109
-6.718527247367428 -5.691377039646761 22.90094361438445 176 169 158
-3.3350802799183357 -10.0590001940618 28.276407739282565 145 145 125
-7.081078330639623 -3.0391065197971976 16.24753088541031 159 149 141
-6.6669838277285605 -3.241899723819884 22.290422743847795 215 209 198
0.1749658134035551 -8.160054483762163 30.101184856885183 127 124 100
9.173155316728113 -0.06314724396584552 32.51328731331908 156 153 142
1.0834799564749356 6.372583863183858 31.32073279969237 146 136 132
-5.349979637312886 4.719994855011394 24.589588688458438 141 128 122
6.873818295462331 0.697652733294108 33.83228371777843 132 127 118
11.359151920311168 0.15875289280825086 34.444779193808394 116 120 116
11.535058304532305 -0.5318562717979062 35.47975082745003 137 139 124
-6.582949573749621 3.230117250766916 19.921914795396695 221 203 183
-3.5497627172389694 0.0056338804187146254 27.55283501485406 205 196 187
6.331784759520367 2.2024749301678077 33.30043107605058 165 157 150
-5.5835608240740635 4.087117202856319 23.40665083007329 136 126 119
-2.710906729547967 2.940685288059551 17.81876513028436 214 201 182
-5.949531708239256 -5.463567988020643 22.280598985587023 196 190 175
-4.909879875229512 -2.923979533937279 21.42755133842806 143 134 124
-5.191974619689522 -10.05997270891141 31.90710167034152 181 180 169
-0.17636863748510428 -3.5235490820640925 29.482091529911834 200 195 180
6.18768231670276 -7.215949698601417 40.22171580906032 164 164 147
-6.7254460649567465 -4.29574950597596 24.663158725813712 204 199 185
-4.3375421021592375 -2.0719339468338536 21.50850960365423 155 145 133
9.672751050857487 -8.936039172062555 47.858377263557664 144 144 116
3.9970816122991657 -8.77844381591969 39.07360875981059 142 140 120
3.621717344473482 -11.518405774286723 56.05623290852221 122 119 103
7.334917000510255 -9.61997116739919 44.9080651729326 125 127 109
9.781906704707524 -3.335256387080437 38.82701609192298 180 179 161
-4.652283279014341 -1.4135776746057591 16.93732844408976 164 151 143
-2.406974809611618 -3.2945279593023713 20.608000658008994 137 130 116
-3.0214327161782593 -7.703144487396134 30.248832558256204 165 162 148
-5.3821687382871195 -4.086672033002438 21.792553580994387 243 238 228
5.137387479117643 0.7817994344828664 24.325668730675357 201 193 185
-7.248255485233447 -1.3691059137542325 21.326328428855422 225 213 205
0.5834926055152911 -9.378909111292582 40.83813158607914 227 230 210
-4.937491872993187 -5.44994388000661 22.202231883734544 135 131 121
-3.2367653591816246 -1.430336989845307 19.44431970179337 219 208 193
5.790160999884816 -9.662998017309988 42.41469039569059 125 126 109
7.725155254433422 -5.58375108903442 33.939548709532296 123 122 102
-2.8340506928986824 -5.769022354672597 20.945734255464536 131 129 113
-6.210840359786261 -10.01385867168944 34.2176379837605 104 103 87
7.3299919552748145 -9.02649036097861 42.189840573585606 122 120 103
10.081221084005032 -0.8150802432097944 35.85614489497184 118 117 103
1.3046211101014653 -8.137949892624793 33.73250589760644 104 101 86
-0.43911048915795775 2.2726447823177804 20.469614657446616 146 134 126
4.489243115213928 -1.9401085859064808 30.80567207214741 167 165 153
1.0199727843306103 1.1503081681216383 16.459089242014954 217 205 194
3.263029027063834 1.056978543766295 22.552464159363144 161 154 142
-5.582036583607896 -2.3328361999117004 16.643685697029916 136 128 119
11.737672148087908 -0.6844236446805111 37.361966293694444 118 117 108
-5.3043800031437565 0.5151027861441518 16.34112522884001 217 202 197
-3.3410234278973876 -1.5556372262948603 19.172468765364265 201 193 186
5.157072627808366 -10.076968938446674 41.00898628663202 118 119 100
-5.416603061899499 -5.491472945615749 23.052892791890777 134 129 117
-1.569528027150667 -11.759016736446343 49.87593643569407 119 113 86
-8.393544542978006 0.19017376368617694 22.81258378914297 134 125 116
-4.702620678210464 -6.301987297303593 20.316249135128455 164 158 142
-8.892045038281323 -3.138054448256931 30.889483426772767 177 166 154
-7.398145240561082 -2.7675438058141713 24.541478318318763 214 204 195
-4.2455881754953175 -2.2924479007627565 19.49460430569882 155 146 133
-7.543846427110904 -4.788639823662806 25.393098520086614 192 182 176
-2.0913069366570745 0.4157981445142388 19.506341952893486 127 118 112
-6.343858671591537 1.5227340062681847 19.47435299534315 134 123 114
-5.647621786942513 1.2836061669133736 19.164108402672266 219 204 197
7.955677762403444 1.6766466158577344 25.83524874544202 10 5 1
1.1138496957661523 -7.683840485795228 32.1376619600584 146 145 124
-1.9201307758783177 -11.15415525387632 40.549881298374636 92 91 72
1.2145830354193081 1.9518845449582742 18.840866279833758 181 169 162
-7.623907619478794 -2.114496864931504 24.673315125583684 207 197 190
-1.3896720562390503 -1.6260538385017995 28.70045376419361 113 106 92
-2.615828211362604 1.9569814106002035 18.863770896933165 163 150 139
-6.216021901268091 -10.322751986319984 23.840365218125186 91 90 72
-3.054252794139884 -9.48325623178332 32.37753940578006 150 147 128
1.4699051186918666 1.9335760792035832 19.04875260880389 215 204 192
-6.575890832121171 -4.938892377387668 24.365973814252005 198 191 180
-7.117268238841392 -11.611106193254553 34.60135184584299 108 106 89
-5.333702934589937 -10.168480407444203 38.079346373440714 176 171 150
5.866050047273725 -2.299904697506497 32.33197067935984 239 237 217
-5.336056971306612 -11.790097894475492 26.775487000973776 9 8 4
8.183820734304701 3.485250105576757 27.155726654099784 168 164 159
-3.7209459139106906 -5.5780663281872735 17.359342721851466 130 125 112
0.7212410070538842 -12.464943089038632 47.16380418353429 6 3 5
-4.650907689333692 1.6638829316300192 18.371388347787757 137 127 121
-4.976578959483395 -4.069114048417476 19.50796601322326 129 121 114
-1.7075095599084333 2.432300734949365 17.41703037659267 169 160 155
-7.623907631739313 -2.114496854690477 24.67331520176378 207 197 190
-7.752573234157777 0.8418290700437615 21.470631175928357 211 200 194
2.894718826152107 -11.188028587164547 52.98813403755935 119 120 102
6.774323589757097 -6.596272421104677 34.174953976239145 155 153 132
7.551070546699468 -0.38454216287744575 34.02523146741221 142 139 129
11.702230623749383 -1.988390510598174 35.30893420091426 114 112 97
0.8877614848013022 1.021730790794219 22.242719073321155 241 232 225
12.14140492122781 -1.8421801932650377 37.82306827742528 114 113 96
10.473670467290448 -5.150454983311807 40.88335847977233 119 117 99
5.145549788265816 2.0840187262237335 26.45128920368292 147 141 133
11.335898000048651 2.2299484614459204 34.621571964360825 120 119 113
11.669838924594934 -0.46498453078040436 36.815252897036125 118 118 107
11.36606770888533 -5.646200267646241 39.88551834909844 137 138 120
6.12571627754818 1.3653957997791393 29.071084853930415 158 154 144
10.52359934081466 -3.0874490695694297 38.87560662286705 226 224 198
6.206277685845305 -3.6709793438452802 35.55011134625662 145 137 119
6.933963795512665 1.0899673339234601 30.810248814692144 161 158 146
7.902479378464136 -6.047102503614874 40.21756395238683 139 136 114
9.607121252635343 2.814654035045925 34.632562421607666 223 217 203
7.936620694106342 2.289625975578059 31.31165201660991 241 233 209
-0.3623996250410055 3.2467412601469237 19.27170203859842 172 164 156
11.331801497478523 1.7879368403143177 35.4042398262765 166 164 150
13.531818767836516 -1.1951531417079377 39.50893228745947 113 111 93
5.634642690032418 -5.177471324612083 35.42938191224981 225 225 211
-1.542454934575168 1.6407784227200588 18.19483948245851 154 142 135
13.596498326535274 -1.6208980367062313 39.45097829382741 129 130 114
12.576791981897836 -1.0585387204282843 38.7171591676476 135 135 118
13.032720860828885 -2.2229660508450233 41.161967034375444 126 128 111
3.582314154785152 -6.939086117563374 36.79574459400098 130 128 115
7.850270704779714 -0.25806325693483056 33.15079248457688 162 163 150
6.083005143107534 1.8081740068641936 28.082495219056625 209 202 188
2.6168570189943114 -8.213733926375738 36.855956667996054 118 117 99
0.19229407531075282 -10.287254178213168 38.99592491113105 124 122 103
-1.4047991255844487 -2.769780889758482 29.135155140255698 99 96 83
6.429022591745813 1.6492146504069756 28.729900789480844 170 164 156
8.256815340861282 3.521663329680852 28.049125821446626 149 149 143
8.180561870209933 -10.702513424267371 44.65802934690876 118 119 99
-9.966458977312454 -9.673325267769366 30.745601646718438 20 16 14
8.09068969830791 -6.65730585348949 41.48222520957716 233 230 204
-1.4090444286393498 1.2185787306465783 24.116805148925554 161 153 151
7.7435782428435385 1.2359717451660472 30.467127753419277 166 162 151
3.262701352297119 -7.927255489932349 36.70573311343272 122 120 104
2.720430511238092 2.7118169354344155 22.749926388300942 178 168 163
11.498998758913917 0.35448340144440993 34.62929395179617 118 117 102
12.984072695651868 -0.8171224040880876 36.419175421928685 119 119 107
-5.284268229822197 -9.101850049697866 30.776283303579717 215 212 199
7.439310038070156 2.0788252368520665 28.162868634374775 143 137 124
11.19472016491873 0.18379343460810704 35.67707687866816 113 113 100
