ply
format ascii 1.0
element vertex 657
property float x
property float y
property float z
property uchar red
property uchar green
property uchar blue
end_header
0.043122893676892 0.05383627751251752 0.04327286306572626 80 72 72
0.049589072000330206 0.07265106553669277 0.033076410621783785 37 36 31
-0.008330497578582953 0.0481315580508456 -0.0020215125322522423 161 158 143
0.044762874282134345 0.0890511609043633 0.02436236541054759 118 127 121
0.03084281159772647 0.07915078623596303 0.022475921128105314 237 226 217
0.03077239787831962 0.09477402592007383 0.004548350114892939 123 128 117
0.039734353699882756 0.0691901057518418 0.030871808390527607 248 232 219
0.0170111968667086 0.08484278139758433 0.003162586764625973 216 217 202
-0.021446285289401443 0.023496026084775964 0.03129009015176508 37 31 24
0.02434504093478867 0.040028109679124756 0.046053208369044876 208 198 191
-0.0039740915408235065 0.07555074807496842 -0.012993315159977738 125 126 109
0.03420890660231249 0.0347905024440279 0.002776642120929513 148 147 137
0.010464340224538599 0.03568368916746897 -0.0034781799974565215 116 115 104
0.007216806252015724 0.08024987399696966 -0.0039025171265592313 255 253 226
0.017576642173715445 0.09753066402784426 -0.006212179663424575 1 1 0
0.02673601088346136 0.04648615384177505 -0.00462785718183188 45 41 36
-0.00992437776145662 0.05513406524743054 -0.0060938197246136186 218 215 192
-0.028803466717681008 0.023534119985179743 0.008086754540166372 28 23 20
0.033135398626020024 0.050209648676149486 0.04087063222084139 134 126 117
0.03745568728238291 0.0910587846378105 0.018219428009675298 186 174 159
0.02539498256815685 0.09832337345011345 0.008436837551115448 137 133 124
0.025098761858591914 0.08034452464587691 0.02248597188736375 243 235 224
0.04584393922231149 0.08161351719625215 0.027472719034822898 54 54 44
0.03356395913566834 0.1049344942003677 0.011326742612831855 137 138 128
-0.005212049704543646 0.055644492105394794 -0.005277177329401865 136 136 116
0.043739126952813186 0.06313041563758445 0.030191429510407177 195 188 174
0.007753381690476755 0.07340111371403797 -0.005090729237997011 121 116 111
0.003696549138134413 0.07990971537537325 -0.011379362620828084 109 104 96
0.02310826059416567 0.0951005377988385 0.006711243937204274 143 139 128
0.0488463391460601 0.07665915859350701 0.03307771353475807 46 50 48
0.04528798591328617 0.06529714580290219 0.03709211211221343 70 65 65
0.025152016845998427 0.06185570813512084 0.03064803454245987 154 146 142
0.020504494524797072 0.08511019121941724 -0.0025415605711466404 77 75 68
-0.004549379060760124 0.07745267887967217 -0.016252550559918134 109 113 93
0.029755890198592597 0.09481990544760899 0.013813113734882514 179 171 164
0.003289887639610413 0.0736320523344709 -0.00460514724291018 121 119 101
0.042337736902079336 0.024497499096098867 -0.003957903345434239 64 63 58
0.022599737884922276 0.026625064027083332 0.039377981640315675 16 16 23
0.025621808198366115 0.10568790324352487 0.0008289813340137448 165 162 142
0.004452189066392546 0.03399323649197653 0.01787391740896656 202 199 185
0.046015993389980525 0.06461045399186245 0.0390737255046688 75 76 65
0.027120318427964495 0.10345976695728634 -0.0003387389329067115 65 64 59
0.028899032715027504 0.09994375891576918 0.0023054751102251575 140 150 137
0.018762009466288757 0.04317556400896487 0.02288271891318555 153 145 133
0.026493820815706375 0.024489440312286864 0.039272510210316046 21 10 0
0.03995763800978102 0.09130884085809991 0.013717822072725898 54 55 44
0.013425142045003995 0.0801329694693484 0.001780997935332007 163 163 151
0.042563209248538486 0.05596134113351132 0.00955716128842574 54 53 47
-0.012211604305356774 0.05706036289198274 -0.011212184583402656 79 79 81
0.026510655826211104 0.08641624220508051 0.011949326952078777 148 142 130
0.019624367441762075 0.04611385003712318 -0.005882905387113173 95 93 88
0.01873219760790214 0.03687118811487134 0.0267182070307614 225 215 198
0.04027455079438125 0.08891419395916915 0.024722425360645253 183 175 170
0.009622821369900716 0.03129287290429967 0.04660453458087053 131 121 111
0.0057442901817438856 0.03530181255904 0.010769790998477247 135 131 116
0.02005116669018881 0.08922707958479578 -0.005374427384356826 73 73 67
0.04403247831446088 0.055350450736706684 0.04584841340001871 80 78 65
-0.008674008483502993 0.06655462250039511 -0.011199565674036533 136 127 119
0.036032760143450096 0.03355959853401924 0.002194129398431347 125 121 112
0.0012366520829022998 0.03205067498541284 0.027796350648033305 192 186 176
0.015256842607026408 0.03624899856076356 0.022302299377754707 157 147 139
0.026868330774213814 0.10039149034292183 0.009707781944810473 143 141 132
0.044008097556658 0.07207404895445844 0.03438011585209758 173 160 155
0.04664832272019993 0.06752324368412452 0.0388777073700022 92 96 87
0.037079345491777514 0.061418407389211366 0.03449917756149015 235 220 211
-0.014178399223122837 0.031745930220849754 -0.018155243496822338 0 0 0
-0.012799032084073007 0.03550948256655277 -0.012762674547148424 105 98 93
0.03927276910173536 0.09762833960212626 0.013770737124439231 72 73 63
0.04295333947049483 0.05387808906152959 0.0491653904398613 55 62 51
0.030850712800039173 0.07915386932287023 0.022411815896587545 237 225 217
0.038666197007119416 0.033467819737063385 0.005167559565503005 140 133 129
0.04603756241993876 0.06627957753614423 0.045076436968695864 82 86 77
0.04581882035257876 0.06422350876215721 0.03987190210839553 60 59 51
0.04057266751419793 0.08799348521575866 0.015536375311055407 60 61 54
0.033694322487563905 0.03659262732291153 0.020450399559123082 83 77 64
0.007438873617302733 0.02823015574781575 -0.0114192128607481 96 92 82
0.0460243768030051 0.06899527149406462 0.04106822118331873 165 165 148
0.014748846171932542 0.03398557844715014 0.04653391204069273 129 122 113
0.039980895386439876 0.0535993273541837 0.048111630235739396 168 155 147
0.01167260175683804 0.09153896386008546 -0.006297903899791124 129 126 107
-0.010507856836505864 0.06463189180896116 -0.009162563064562736 122 119 103
0.012694803890513714 0.03200915860465005 0.047611399429328835 199 188 179
0.021885107747886226 0.053874645094741665 0.02590378565548648 221 211 199
0.03446583446403487 0.08315079668110292 0.011400767810649177 40 38 32
0.001994972713740184 0.0736592269906182 -0.005477436727060817 186 188 172
0.012363281971134288 0.03337253255332139 0.03919620242399264 146 136 130
0.04220923495860844 0.07223848620250065 0.023729987291870355 43 44 39
0.025592272925333455 0.10275343550396163 0.003942612351863803 129 131 131
0.009728065863801478 0.08203566465191908 -0.011137092893935033 61 59 57
0.030955705106761815 0.10207508136542924 0.007019024305765516 93 93 83
0.04493433827093633 0.06791687181096859 0.03464550014001187 81 81 70
0.03634515487801607 0.047055271763948116 0.0015206105078314775 80 78 70
0.01969278670963092 0.0354702637944904 0.04938435381742891 20 12 5
0.03369818227003957 0.031156856084357983 -0.007201983846348193 161 155 145
-0.00261052742850136 0.08241157235253777 -0.014674928007906526 4 2 1
-0.016674888232160855 0.02264811834777842 0.004840849802591758 21 17 15
0.03419056540370469 0.04174548129487452 0.05188117591013057 162 153 144
0.009936149305941161 0.03202013278024699 -0.0068301016869418574 121 117 109
-0.016317017571917995 0.05565133552122785 -0.010082861285511434 135 131 119
0.036741798019051496 0.037404474064668305 0.013211971622040975 60 59 50
0.03194124795753702 0.0427505376386003 0.04917164383330623 147 136 133
0.044351992614398525 0.09025111580252924 0.021021684580385645 77 82 79
0.03251112423196448 0.030647627697329604 -0.007975227208321283 159 157 142
0.00036708402314112535 0.07704146986638961 -0.015199909978260767 82 78 75
0.04220234825846919 0.06902549784389689 0.010651881819160788 140 135 124
0.04107415778268621 0.08965439941992882 0.01573962830428889 67 65 61
0.03720971827590013 0.03807341458040704 0.007080061572022858 101 94 88
-0.0014684538739034314 0.032534845621860306 0.017630878504514082 172 168 156
0.041493094122207745 0.04718032297639182 0.05070843576466069 179 172 147
0.03788816622395034 0.047899417783307946 0.006620605025709839 138 138 126
0.04743287423836182 0.07124498657563622 0.03744375612632634 174 168 151
-0.0164322083385319 0.04100903693164595 -0.005582590931436858 129 125 109
-0.017253175229546412 0.037917777870523445 -0.005345648777307924 170 171 153
-0.012268867794566828 0.05764944297276096 -0.0068516532758927835 121 115 109
0.031769067101436343 0.031953756019178374 -0.002203236064697518 159 154 148
0.03696399915946396 0.052773556468497025 0.039924722615291765 108 100 97
0.016156295462589225 0.054846794633661246 0.014162300956822053 126 120 107
0.04386365937405415 0.056698312249043446 0.039889469371497725 27 25 23
0.017087017820084698 0.0942793076031281 -0.0072907562506269105 82 80 74
0.026361195273121155 0.03732827153665712 0.0523429474051765 76 69 63
0.04773349424042907 0.06985205215405088 0.03385939090472204 105 105 95
0.0453423118187248 0.07133539539892349 0.03579815715189135 227 215 200
0.03271719444777101 0.02991276750770867 -0.00941450341065708 156 153 138
-0.003300694553325306 0.0769521924594247 -0.013170004782999659 125 127 109
0.023556516311630697 0.09840432790635187 0.00537298355907434 145 142 126
0.019086434865582595 0.03222114655666301 -0.010377855034790074 120 113 109
0.025502140924500177 0.0857206118867816 0.002089846221252039 74 74 68
0.030928741218861806 0.04277369965093502 0.04595956473208077 141 132 124
-0.009228444236005322 0.05960611049837522 -0.006461786209551476 210 207 181
0.03913052440041487 0.039633202935516726 0.010757308706551264 85 80 66
-0.0017156779484180599 0.07696475059634497 -0.00917325858833674 162 160 140
0.043774703780495854 0.059218633581906245 0.03545800798723672 28 17 7
0.04146960091320708 0.10301957521649813 0.019366584152173426 125 120 92
0.034527131325642134 0.046167594157640594 0.04228034432011772 222 208 195
0.010339713751567055 0.05794549572185615 0.014227239264285204 99 96 83
0.012374262829170394 0.09129049420364661 -0.010898718768140333 138 138 120
0.013250921594162468 0.030536220524983435 0.05010251975793155 16 6 5
-0.009770322949239177 0.05743726001793027 -0.011284539385661183 97 92 88
0.0228593054618872 0.08568476797910034 0.008239892174446824 181 174 161
0.02163678035527089 0.049440810123537966 0.025264930192294505 207 197 187
0.0145895701888866 0.023556061034385276 0.03928108955079798 10 6 4
0.024956602519249853 0.10488738867591156 0.0026691749140164505 156 155 146
0.03721598058846019 0.05060755752334114 0.04216543878517212 148 136 128
-0.0010945615132093743 0.07971989178561945 -0.009415825601588825 194 194 172
-0.01069820854168044 0.06026818560599093 -0.008124551752238038 129 128 108
0.039717168416032636 0.04432845095315079 0.044671088769925184 25 25 18
0.008150033371201952 0.07462082699729557 -0.006588126807511315 131 125 118
0.0290523970288561 0.1022039420993055 0.011536119504737605 154 150 139
0.015488170513938644 0.03518824365687558 0.025106985510647186 231 222 212
0.04739163952000897 0.025369738696571397 0.013906320375059577 84 80 73
0.003677017162671687 0.08335280724503555 -0.011225320589799016 201 192 181
0.014059731096826466 0.09096835046205189 -0.0024609546491622183 180 179 161
0.027429338762640178 0.05037545075067873 0.00020190943883146735 51 48 41
-0.0034109534811546595 0.022968723802447556 0.04257977412527689 16 14 12
0.03622943828647606 0.037277089041408376 0.008198818615479853 90 87 76
0.03511286122145825 0.040282377523900126 0.050493741080841155 68 62 54
0.0004584316701799714 0.025874690692971797 -0.007299448736844133 74 72 65
0.03575636428059715 0.04823028717513276 0.04174598659647643 106 96 91
0.0013942047664999907 0.0332975485386231 0.004067308633714288 159 157 144
0.025614786119646012 0.09755776402627196 0.008856996543924824 144 141 131
0.02480361542061669 0.09204386456225803 0.009266619221854155 144 139 132
0.04524445327553972 0.07744559063401853 0.026083563853132118 71 71 59
0.033258069912579326 0.08342817823653459 0.017963837591838686 131 124 115
0.04054674801165741 0.09043653575796454 0.022771988007166982 223 209 198
-0.021759433916327585 0.02268719957121695 -0.015556966876310238 2 0 0
0.03268405394935203 0.029427637575725148 -0.006315656984042686 153 144 138
-0.004941835338439137 0.02916647195991798 0.005660441240000293 129 124 110
0.03990908127824322 0.05636006325159761 0.043988090883552995 193 184 176
0.04074841769688822 0.06606569373595614 0.00605219659162295 98 97 87
0.009206401200602954 0.052501794274219554 0.010196686456770439 128 124 113
0.009626342778296675 0.031169514042745525 0.040571560438421014 155 150 138
0.02565010480096974 0.04283647715582027 -0.002912564272200414 50 45 36
0.039270377336888596 0.09238578209571693 0.01310552086469442 76 75 68
0.024488568926043917 0.10845776864464254 -0.00027588384092846514 6 0 0
0.02593677357850475 0.0576474860238593 0.028703859962372714 111 104 97
0.03783162783653666 0.08587618788073037 0.012630349069627508 63 64 55
0.029588111504862676 0.03977690272808258 0.006835621500446006 107 102 90
0.04270086524870843 0.0725283518390757 0.029945697631889905 172 160 156
-0.024430557765732278 0.023344445345111604 -0.009617227993554554 19 17 14
0.024057888861979838 0.024433876914022608 -0.015245714094155993 92 91 81
0.030302031377913718 0.03859819774518907 0.028273358855515157 164 151 143
0.035332591518428436 0.03721696917897397 0.04429271623134791 121 118 116
0.03173881548626555 0.10601355813529281 0.010230305267497325 115 117 102
0.016785612936592205 0.0394428755835848 0.0210334475528851 183 180 169
0.04456753508859145 0.027368321067461242 -5.761332189964251e-05 91 86 78
0.030021995230339646 0.10214710163266888 0.006134579727097684 79 78 71
0.04457774546435768 0.08904725642125925 0.024179378372916362 217 207 196
0.03291519717147852 0.1019634859605452 0.009463234202967519 74 74 67
0.01711047495314881 0.03329499524519232 0.028887116892904515 219 212 197
0.00955151534890174 0.07338384944494389 -0.007684112498204092 127 121 114
0.009116354010352583 0.05181730524643292 0.010553624906438975 134 130 119
0.03471991725090352 0.03601059131377886 0.025209578902199596 76 72 58
0.033017291207717646 0.09900547939278286 0.01468836011655656 235 227 216
0.04379881634008872 0.05828809961339846 0.04494902462322736 149 139 129
0.022787442621776212 0.10503911293888929 -0.0003624413875539135 112 112 99
-0.0007845596601655979 0.06463076794904851 -0.01079450244430675 52 48 44
0.041951029542846574 0.10180101298843547 0.020430099164991933 168 165 161
0.03731920062330972 0.0380235428469191 0.005601063894146808 2 0 0
0.0017666637682785657 0.08278398611973824 -0.011037879529078629 219 217 192
0.026334320630776106 0.028584887380481566 -0.013165536798367329 115 108 97
0.005231345953384404 0.033497851702931424 0.024501647777713253 221 211 202
0.017805387240605954 0.0948850360653956 -0.002915183642125371 129 130 115
0.032661654537134946 0.029124846230066333 -0.010815913935972431 105 99 90
0.037640574753828274 0.08995282057345381 0.011307682854780735 75 75 68
0.02771917177419397 0.08580945453269839 0.00423454266196749 93 92 83
0.02444388612985321 0.032411639417537746 0.045905450687739116 20 11 8
0.020651865905586837 0.03668217185626244 0.027614583364404817 152 143 131
0.009461198903793197 0.0875121489239955 -0.006169576799504146 128 127 108
-0.0026257132379824844 0.08203333691604094 -0.015347601479748486 2 1 2
0.01778616436327782 0.09593853509873633 -0.006307096486582112 119 109 98
0.01683683338550352 0.02858287180037361 -0.014490929751088837 115 111 104
0.00407051994295082 0.03412419264411992 0.017923136875884017 213 205 196
0.024662495979110768 0.06670315720580383 0.029280642229066064 223 216 205
-0.000674354303954072 0.03148438390500866 -0.0007505199250434764 166 155 147
0.03453034111571378 0.022414757264490697 -0.0005462281908593583 161 147 137
-0.0022930661232454016 0.0404907986859741 -0.005035351457741748 82 75 66
0.04387167767570655 0.024410579171313763 -0.0017240047259707502 70 63 59
0.04358513674843642 0.056488474314167106 0.021276752884744673 99 97 85
0.027860258983579557 0.04018272326378458 0.025510487008694373 109 98 87
0.018343561223204883 0.05143917458015595 0.01362254319413828 137 130 116
-0.01905442180944543 0.03476438321781117 -0.005840277642083481 116 115 103
0.012085790554942558 0.08670659058924714 -0.0019199701389050173 151 151 133
0.04715420599807427 0.025421275353788426 0.009088956181261204 95 93 84
0.016536733186126584 0.024440971555453023 0.03925768656906404 68 67 63
0.032634432384807434 0.03676972978817062 0.017889937823267893 89 82 68
0.03515495830421546 0.06310624515784137 -0.0014960279843840775 44 42 38
0.03371091275211803 0.09515578555900622 0.016130732943075748 246 235 227
0.03637994769394271 0.09767438783415652 0.01569931724418831 169 162 148
0.02298432198303461 0.0342825846995052 0.0002146516642628869 50 45 34
0.04283480053602138 0.09328163730007662 0.017226426109254893 72 72 63
0.017515901140807224 0.03263284714216045 0.029570227027062825 225 216 210
0.04003080717696474 0.05728057557465372 0.03806530268334275 149 139 135
0.04316565510919038 0.059753690583921756 0.044661403577968495 141 129 125
0.03889788547811225 0.09594698207436 0.016374144013216404 144 137 124
0.004429442640553408 0.07453850891336722 -0.003807074022486141 195 193 178
0.007797527065676264 0.03776598123208267 0.012491252996139197 220 219 209
-0.01411356174083491 0.02885957405827855 -0.004648712181685423 28 22 16
0.022039727511062705 0.09267135681955788 -0.006010961045680095 62 62 59
0.021110750034134686 0.03372441258272542 0.026891076805734982 123 113 101
-0.005299021466276664 0.04783499276738665 0.00010000914589832769 165 162 148
-0.010944242030978095 0.0358798811713402 -0.011779547641245648 110 102 97
-0.010750463927766445 0.059536071033596386 -0.008075663596466179 126 125 103
0.039709508781334064 0.07945965111785203 0.028273508006472475 179 169 162
0.027885615832356967 0.04557246052626698 0.03808636824910826 137 128 120
-0.004525570347601234 0.03150863579945479 0.01362550137398242 184 175 166
0.007107053866777526 0.03504713355043389 0.013400465962227059 203 198 187
0.01098393582723329 0.07650767398068085 -0.0076383969396969335 96 93 85
0.031596056886584484 0.09165706869832892 0.016666987679158796 170 164 156
0.03787220804137732 0.048335989147375476 0.008280572660301305 42 37 36
0.013133943742040122 0.031868905300846 0.04761530597594656 199 187 180
0.04585301722196242 0.060460899073810484 0.043543591805343056 222 208 195
0.012100683600630617 0.03153995453279087 0.03229805947359361 219 208 199
0.02796078335548193 0.037208331714219306 0.053700332314240665 120 113 104
0.016630783179092997 0.03481837101663111 0.043834885545475176 137 127 117
0.028869417023100478 0.05728672395252734 0.029835557866828687 133 123 116
0.032995520596886416 0.0302697139407761 -0.010113125040094989 152 145 132
0.019208671020437666 0.0820687874159039 -0.0018402053729156174 36 33 27
0.001145746951693137 0.027659752201594837 0.031753649374637545 149 146 136
-0.019925687276279323 0.028283144987613872 -0.012534997720528891 25 20 19
0.027023836278178687 0.09388259823394447 0.0004681810360271278 71 71 66
0.02142067918900348 0.09036991771696658 -0.0043512661619802976 55 54 52
-0.014552454571043748 0.034950264559903556 -0.0017501718160948543 118 119 105
0.00784585818793649 0.08347255515052493 -0.006601384283214674 154 155 136
0.03000070581649757 0.033742286930576286 0.0014682796453355795 128 124 113
0.04217866124491716 0.07176144133615629 0.03216491682153598 241 232 220
-0.014035460201935523 0.022973764920363123 -0.009872711404496462 28 25 22
0.046811966196339566 0.0768900940895752 0.0333482064865795 175 162 159
0.018090429775238535 0.09569209371661262 -0.004492025533327809 145 143 123
0.044313416832539185 0.09645348776221446 0.021700061215226992 212 205 190
-0.0030689906299565346 0.03202796009039268 0.011754501784860573 186 177 165
0.03130484594562597 0.06261501812383469 0.03300219559002997 218 210 203
0.036432512717716206 0.06787611580832308 0.000529167046555509 111 113 100
-0.003011324681330782 0.048796492856792245 0.0007968720127243335 193 193 174
0.037151915009058505 0.03117712253931707 0.001799840478754091 160 153 148
0.02691038249874659 0.08929108558600385 0.01212798227838384 131 128 119
-0.012885997504909876 0.05991840168950723 -0.011156584279161143 118 107 84
0.0039008630185217085 0.07922321193818109 -0.004801032089813498 182 181 170
0.04453920124574781 0.06061806313983609 0.036563683067221964 93 95 88
0.005954068877107051 0.055974636158203084 0.01163813134957646 108 106 90
0.027404904511651524 0.058770035061173516 0.029640883398848645 144 136 129
0.04053394754270219 0.08891265719565046 0.014933861261768825 46 46 40
-0.007388295797852781 0.06470204494872728 -0.007767750731183866 238 237 211
0.04005642759982657 0.07663094839992393 0.027735652730665746 143 133 125
0.019942968790792544 0.0835913180433944 0.006509338431105942 186 180 160
0.03882084697302382 0.08302939251431687 0.015785758634630602 79 78 72
0.042273617650985036 0.0591973917739506 0.04219526784719905 143 131 123
0.017882299799697805 0.09408150672590254 -0.006421884268694063 109 110 100
0.010479844120395609 0.036184236141477435 0.016069240392256108 243 238 228
0.008123879314818823 0.08522431220351939 -0.007512625622563881 135 131 111
0.0028786170359432423 0.03217537118006146 0.025436532520847537 189 186 173
0.03832638473466159 0.05107672483135459 0.0468338956903242 124 117 111
0.011855147839924758 0.08014820915783964 0.0004408079849568571 224 222 202
0.02484466308784849 0.04446547190735635 -0.004103023105446365 81 79 73
0.02662146147362836 0.087088697505346 0.002128376994686205 71 71 64
-0.005701965317600772 0.06445317312182285 -0.011524143633555283 122 119 112
-0.002944554070578028 0.06057303469517165 -0.011355476602357403 111 112 106
0.049828920019141396 0.07340119369806655 0.03384906073362855 121 125 120
-0.004561460119887417 0.05257604865150196 -0.0008232755381172845 112 112 96
-0.010766081351493572 0.03566912732738711 -0.000994848557579715 147 144 121
-0.0053492363489686555 0.026899230589201704 0.003502720376751294 137 136 126
0.028142247200570517 0.10458093357683974 0.0013372183159148603 228 226 205
0.04425366486625255 0.06675561473471057 0.03395079275109378 74 79 73
0.037474463288434484 0.08459805867637166 0.013147235618514228 64 63 57
0.04995808263348721 0.07339554129646081 0.03377636192426026 98 101 88
0.0017172271286664844 0.08165044605950113 -0.01165547293568928 87 85 80
0.013457502302981046 0.033375064705302625 0.03945228537159622 170 160 152
-0.0015465847481380933 0.02843926860529448 0.02893659575641696 147 141 134
0.04149777670654791 0.07962253243438194 0.029928148001153624 174 165 162
0.03443282262231743 0.0466557259798382 0.05132572752734241 0 0 0
0.01849426454930418 0.034157932329464895 0.027838219799032667 126 117 105
0.04516306849707067 0.061892913362265906 0.04175863163224901 194 193 172
0.024873059851704443 0.09661164074552596 0.008387814673453299 136 134 124
-0.007961483229463696 0.055895839767861194 -0.006394296249199011 239 236 213
0.039334550883105425 0.08599060516813743 0.025394490335085628 184 175 168
0.04642271558369581 0.02635561846442439 0.02336751598048405 130 124 114
0.00788289156963417 0.07709256747401036 -0.00229631849491488 255 255 233
-0.008558489945488126 0.047787100816821984 -0.008829982611792592 111 104 104
0.036012279733929474 0.080092598215808 0.022787191591521903 142 132 122
0.024245779501233578 0.03224062599261033 -0.005306832377494873 101 97 93
0.04301831778022136 0.07143519136200192 0.027104844034936435 40 40 33
0.014408440263944633 0.09292137950583362 -0.0040956998976987465 164 161 147
0.011619392089092039 0.07674261259147001 0.01255599853660922 184 180 169
0.03853672758639044 0.09946842240885875 0.018326066121360434 130 122 117
0.033568608513383745 0.06271948801511208 0.03356640108448917 211 199 192
0.01985684659858419 0.08540913112370364 -0.003902746310708938 33 32 31
0.039625014119353354 0.09755283175931284 0.013575147146639205 76 76 73
-0.012042180755509266 0.03232113650249864 -0.009925898987673059 31 26 22
0.008431761304644396 0.030370471726721148 0.038359127285006824 139 131 121
0.009518382173833948 0.024462842537914895 0.03772767243158865 68 67 57
0.04048711250257407 0.09398654855184986 0.014624292520183775 57 56 48
0.025192551003721173 0.03680689198902551 0.05068181562975807 77 68 62
0.03700080192682642 0.09853441494862879 0.015018086931439367 81 84 79
0.024431639211424865 0.09226755992040586 0.009412560927914367 144 146 132
0.008397672973314426 0.09015119715495508 -0.010238231998246724 2 1 0
0.029701710707418394 0.057977928266267506 -0.004813864197949487 41 39 35
0.021838691235387696 0.032702454660358336 -0.008790586948011124 95 93 85
0.04274117318547476 0.051548514612494926 0.04621380473763313 172 173 156
0.038939892504081385 0.04775193599610349 0.04665377356828727 198 184 174
0.008076612086296333 0.08471008107673215 -0.00676159745759007 152 152 135
0.04238735119317539 0.030127368484792503 -0.003545310136234091 15 10 8
-0.0075705917401533785 0.05664363011358392 -0.010411282222054853 96 91 87
-0.003495859270449478 0.029770707478484874 0.009594360146843508 132 125 113
-0.0009756275571137676 0.02638736467428688 0.02996505132713416 138 131 120
-0.012615196978264034 0.06339849634622038 -0.009936130111206731 125 126 112
0.022142721990654056 0.09837163302484767 0.004206908161515949 116 112 102
0.021305554477490253 0.09991965544898916 -0.00020877511815393544 146 148 131
0.026715697223597498 0.034923224566867236 0.0030863396160064472 130 125 117
0.021741357999947065 0.0986286582664313 0.0004988700119639001 114 114 103
-0.016158585756731028 0.022466957663599574 -0.0072363373606584465 25 20 17
0.041695207390390135 0.07147529356650412 0.03059768596243733 164 152 144
0.036798289279706346 0.037943670880323334 0.030916951498259196 78 74 58
-0.011788017116115669 0.03016961505344178 -0.009792442104375371 21 18 17
0.04382599052072799 0.0245295981466142 -0.0015209456875825743 67 68 58
0.01494934767126806 0.036013483382686055 0.024327743310576383 164 154 147
0.005000342558584817 0.08054696180906985 -0.010631605312950305 108 105 97
0.03453382047390315 0.04370890338481309 0.015898878596164193 73 68 58
-9.311568285487681e-06 0.03299409382563704 0.009938042203115387 174 169 153
0.030602671893392563 0.07912869128942616 0.02265579057156531 246 237 227
0.03492315131367922 0.03644089688959713 0.0405569654713948 117 114 116
0.016469545342922602 0.09310353162616372 -0.007728905655957893 85 85 79
0.042800482251865175 0.05411811728329717 0.020805393173603276 59 57 51
0.008537838812397572 0.03245495715131813 -0.0062193232921187065 98 97 92
0.0093917131996952 0.08779244685153843 -0.007105457440955449 136 137 119
0.02200911958063718 0.035271108309379705 -0.005995520524936961 101 98 89
0.043382313412910684 0.06463786963919661 0.03579404602382706 32 29 23
0.009238251121239315 0.03925321122493069 0.012626380061291282 120 117 105
0.03685917460947187 0.09796963585434042 0.012813530209888508 109 106 99
0.03165802519251264 0.09082424975549348 0.01734356210175169 201 193 185
0.010409107134497138 0.03244734786517859 0.03200757929625333 229 216 207
-0.014402059018330415 0.057021894685500694 -0.00974839467713938 150 143 129
0.03363149485879575 0.0311729307080763 -0.0062231909342712445 155 148 137
0.0020553250154850635 0.06681300683302431 -0.01205955955211401 92 87 84
0.0029901469817119513 0.068300185982345 -0.01063003463700454 79 74 71
0.021874845865905938 0.09956325512582405 -0.006827644835810904 0 0 0
0.01271216166977556 0.03189304327868571 0.03297784336859723 225 213 205
0.0351821276228881 0.09815397072049627 0.014528690351432672 237 228 217
0.011721912382317751 0.06758294458455093 0.01812352243395324 113 109 102
-0.007600090972944893 0.03521088651779086 -0.011995268677421176 69 64 58
0.01226511861248211 0.08140333555916651 0.0004529761514940032 145 137 119
0.036380591617891964 0.045921271224774664 0.017890273517613183 53 51 42
0.007943376033577596 0.034080361098455046 -0.0022877768191612666 164 154 145
0.022696915007079734 0.1048096905285937 -0.0025325436012962367 114 113 97
0.012374187641781996 0.03328001494532639 0.03178362571584723 218 210 198
0.04301487682497522 0.07606615081659074 0.030305471259484126 199 187 180
0.02931281660281536 0.10210131913844253 0.004902898150133532 103 102 90
0.038621393374910586 0.04603325182692272 0.05061542544323485 222 205 189
-0.007822222931964868 0.05904353983039114 -0.006295549827435688 225 229 208
0.030401826054592327 0.04450200929739704 0.002834340989565357 107 104 95
-0.010375449513522116 0.0423214819437469 -0.0010807056458563985 202 199 178
0.03825351040327001 0.04795873592624405 0.0466814942864065 191 180 170
0.005055989277767839 0.047436890028035805 -0.010618376950227472 54 50 46
-0.016278411231164275 0.04113148351004407 -0.004363511614941527 146 146 129
0.03905543989352979 0.07994943600166085 0.01785997342139324 90 90 78
0.010550013445096922 0.089568955431788 -0.006353950792074386 130 127 108
-0.015266005391862257 0.05572073665256513 -0.009756229369333283 134 133 113
0.0405966917413879 0.10129612928880648 0.020498478640252348 148 147 143
0.03573399649517867 0.10038622576255869 0.013927191609110937 244 234 220
-0.0023622408533155053 0.03248140729955165 0.016363622853838716 182 177 167
-0.004162499739252709 0.07756513167912593 -0.016685663920089917 112 114 96
0.03161992426595107 0.04009029849495546 0.05048175933602114 24 24 26
-0.003097136651708635 0.0778848993376312 -0.012462161065261964 118 116 102
0.03638783420080179 0.10015701473526487 0.013246261095322696 255 244 191
0.01646946216985153 0.03435884974980591 0.049398327221513244 173 163 153
0.007497621042611606 0.08233976502553904 -0.010169925922834585 62 59 58
0.0027270041892138593 0.03398784322531342 0.00925684100273885 202 197 186
0.007101373512472833 0.08512945442759569 -0.008923193496661685 130 129 112
0.03524060688097295 0.08271102711455448 0.02195400538004597 164 160 149
0.0318396926483759 0.07723335178783342 0.0018382205312898097 149 151 131
-0.011926231930236522 0.03867890336115032 -0.013064652437734383 88 81 77
0.05456119567738492 0.02470172208362392 0.0368698154411104 12 9 6
0.0450453799580612 0.08550561798390821 0.022935059005168745 205 203 190
0.025247348171143814 0.0862808928848317 0.0008201060934853576 47 45 44
3.0108354791335173e-05 0.03377007703121044 0.014747372714931649 176 171 157
0.05429833570642343 0.024636816618434816 0.03675774486293882 11 10 8
0.0430118462902274 0.062307267696944134 0.03040781470476765 190 193 172
0.02767317934877757 0.04936823000604533 0.024023962945604056 104 94 81
0.03420327938730541 0.09274982727925188 0.01733495696110415 254 245 222
0.006671946689245689 0.029055588993273904 0.03662326903426569 168 157 142
0.024666931033199405 0.10444556166584909 -0.00028719197783558714 123 123 111
0.041340581153201265 0.0738905633018284 0.028946625470126223 163 153 143
0.04513338195786363 0.0805699822734744 0.02815261636537161 62 64 55
0.015338223888592338 0.07975704821059784 -0.004940670601221217 77 73 67
0.04155010120293869 0.04576835579009198 0.050600352760120204 127 118 95
0.0018962496264554884 0.02804373498866352 0.03237202915158369 139 133 122
0.03578648778673002 0.08225012420774963 0.02240026486401588 165 157 147
0.0037231280183966323 0.033745755066881065 0.00501324358585296 163 159 146
0.02265888716254164 0.035726771512015455 -0.005382919114688253 93 89 84
0.025989435256023593 0.0883607239481136 0.004716763990571668 65 66 59
0.02148450293559982 0.09284520031963761 -0.005556560269576594 66 63 64
-0.018291636897791806 0.03367016436206238 -0.011145078697171587 132 120 97
0.04300737432719595 0.06331001556621668 0.03350383648562622 77 73 54
0.04000391786236635 0.06773101700613236 0.03228005961967815 119 109 107
0.019352449628897716 0.10143667385891877 -0.007602016705281603 0 0 0
0.005869628404396445 0.06439428984044812 0.01065815919767314 205 200 189
-0.015567060059129764 0.05440534230486267 -0.010583647623945721 83 78 73
-0.009622828522213411 0.04659438012918065 -0.00829014069112313 148 147 131
0.028793537765033985 0.09787290820239371 0.012098415466255386 147 143 134
0.047326158179882394 0.026762792569395948 0.01592802805266263 119 112 104
0.025935635738950035 0.09300768129152306 0.010557293734944835 160 156 146
0.03609334663897424 0.10046459734502673 0.013201555295608961 172 175 151
0.01392722449583484 0.03577914645978914 0.022987615213167 142 135 121
-0.0055072390642164765 0.07101097175891026 -0.013265971007009447 86 79 69
0.0344616967216522 0.09327269296915337 0.016595894984137122 255 252 241
-0.004594565493696302 0.06878152556353903 -0.012024878859389954 132 131 114
0.008158902200489265 0.08250339516133667 -0.007240291381350222 153 152 134
0.02804139257866705 0.05716029642382954 0.029276739357527934 99 91 84
0.028255338776625102 0.09477897116161188 0.012394986708307864 168 164 153
0.04046754534439926 0.06327115439550117 0.03591773151948717 158 143 134
0.03523839599492632 0.047112662078510795 0.013132220182097361 77 72 64
0.03115696075621547 0.0872039669208345 0.008055447971353455 41 40 34
0.006208262568887841 0.03692216076795454 0.009318714285240491 134 130 118
-0.004054891939230315 0.03816105384287768 -0.00934491927991002 70 64 58
0.043802375351104206 0.09920527637856369 0.020004443411190186 161 163 154
0.021459507557263387 0.10067279080511563 -0.000957051277579019 135 132 119
0.015247776873726498 0.08081933933529159 0.006973465946610458 177 176 164
0.04973641866281832 0.07705991219550051 0.03499203784808839 193 194 173
-0.005654004423053754 0.01453925176613515 0.01464392457826879 12 6 6
0.034422671311137326 0.043079422868875075 0.05193922253779155 182 171 164
0.0035043360499158404 0.07364461031832614 -0.009408243906814816 80 78 74
0.023021329183633532 0.050031769226875314 0.025053829271874536 229 217 204
0.027540252143663835 0.10443954096035106 0.008652862926406792 129 125 109
0.045946450160883306 0.06440757753403219 0.04114408870232948 86 89 72
0.01054639130584445 0.04316597809799892 -0.003802404979350647 131 125 115
-0.005994433584512122 0.06954926393756974 -0.014924747021239953 5 3 1
0.0017871804960451119 0.03350333550407402 0.006715678983898429 193 191 179
-0.016774623081748784 0.03178781396978517 -0.004664631934432566 145 145 133
0.020913505984446308 0.09117581317048092 0.005175074705976538 150 147 134
-0.0005906095897424204 0.06254544749521662 -0.005802766834448975 146 145 124
-0.01383519696280449 0.05049447371872048 -0.008210086050477123 93 91 67
0.015304575798278793 0.09499355047300567 -0.005401620921456831 186 182 157
0.008198628453380763 0.0844573649353371 -0.01056704365045044 147 143 129
0.026445680574162016 0.027451362861602158 0.04265686007751269 156 153 143
0.018718216597983665 0.09084373104248697 -0.006099249530599451 98 96 88
0.004875761928130556 0.031244938819674224 0.03189228352589931 209 203 191
0.046882163409111166 0.06936413447067503 0.03943448268837928 139 141 127
-0.004245371028288555 0.07333024332447417 -0.012616781254118898 125 126 109
-0.02475886324330139 0.02345127830879962 -0.007626543969202722 25 18 16
0.0029862456308866327 0.080355350626893 -0.0060644201573273986 175 173 158
0.032450291677424914 0.0409358634846747 0.05133756198536509 221 208 191
0.009843991879005183 0.02436354573714014 0.037955045434023414 66 58 47
0.0346391279262596 0.030039981442197588 0.035002138797167154 178 168 158
0.020903006924277562 0.09733936464749757 0.002872154439709398 116 116 101
0.037116033226411826 0.05068103860568874 0.04229402451026934 147 136 128
0.015925961371798365 0.04587067287764805 -0.003980250175195112 48 46 41
0.043887888953649846 0.02447793003860446 -0.0017479909494221846 60 59 55
-0.006303271945913595 0.021239836679163546 0.007154632510318538 6 4 4
0.037756794907768065 0.03626601208315244 0.006452472709162895 169 164 152
-0.002807973975599205 0.06191153791026204 -0.010834539942541499 95 89 85
-0.014397801340963917 0.03581909133605595 -0.0017275863099834618 99 97 81
0.044174777289824954 0.0543180644151979 0.04632224034157158 55 54 47
0.019957160278309335 0.051890309082409526 0.02489516158403587 163 155 144
-0.017746550168081954 0.02340618305680502 -0.002578477601829076 25 21 19
0.015716784500157704 0.03442920207163689 0.04034305053258401 152 144 137
0.0005536755959884166 0.03205915187436297 0.0012169558700244674 159 157 144
0.012406252271509436 0.06154660015392515 0.015383512310624407 106 101 91
0.004363414272324817 0.08210971133657423 -0.008138522440853696 233 230 204
0.04375659933273233 0.04874508782823905 0.04144954893645451 25 25 16
0.019746939045512443 0.03416236912201673 0.04845479130354929 225 211 200
-0.013443850221090604 0.053077964622923024 -0.0058341925628842065 215 215 201
0.04430069289333912 0.023906663913308798 -0.0005219977190898454 95 89 74
0.009565703008566184 0.08739363166468463 -0.007855882182658763 123 122 102
0.016497954345302497 0.05373062046738427 0.024608631836457753 116 108 100
0.04039030799630994 0.048408187109322647 0.04907230197140424 149 138 136
-0.017786249323767673 0.03619794480129369 0.001105343088276317 184 175 164
0.04669272134611544 0.0691771977009416 0.034353435936421005 107 108 93
0.025010169526762025 0.062169324655158474 0.030726691811145363 161 153 151
0.011557626242336968 0.035058213878300826 0.019663235413619966 206 201 193
0.034645891436781706 0.06649724937448523 -0.002496449762687164 71 70 61
0.038485362362057976 0.04511341453826246 0.01044145045313512 188 176 165
0.029113610878142574 0.09041742579764603 0.01455920954775762 166 159 150
0.039162956306073894 0.08007359289097811 0.017625967425843433 91 91 78
-0.01160203954088827 0.05472094293679983 -0.007106440478717049 223 222 199
0.018412297859180863 0.034050256669087356 0.04935088018871007 222 205 176
-0.009124196331746442 0.06737031567058517 -0.01111532467698181 223 216 202
0.023267791998184253 0.03843207011852643 -0.004470990482163158 61 55 48
0.01574205933979506 0.033956133323141756 0.04952274599781256 166 156 140
0.044300118468283044 0.09240261574513298 0.02180128253652939 118 130 119
0.04637783217329213 0.06985560208776721 0.035443566576962814 129 128 117
0.011414404451463793 0.0888730444618943 -0.012347543860123471 91 82 64
0.017025374323487573 0.03703892780507491 0.025303213589848512 168 160 151
0.03400718903050217 0.0442562156106199 0.04526118670459114 153 140 131
0.01907685795200206 0.03523228032535877 0.04722173841097871 207 195 189
0.013451913877147892 0.08329282122987867 0.0005290526873851094 224 223 210
-0.005846546064944068 0.027339230312348122 -0.006626054245815318 139 133 126
0.016603624782909623 0.03589825280158528 0.025858434492427328 176 164 154
0.048291945540419906 0.07617179900979754 0.034454093094099865 173 164 158
0.01310827582693393 0.09309111228193616 -0.010318172189909299 105 104 95
-0.01506377173848374 0.023281112661802956 -0.01004273213931062 26 22 18
-0.016436092043886213 0.03977952449885032 -0.004550591934044821 155 156 138
0.035892870884566025 0.03309724658153596 0.027488671965744758 176 174 166
0.045361972342297205 0.06357712406438759 0.0382669344142293 64 67 58
0.0343609911161289 0.011765003343742513 0.01203004637429661 1 0 0
0.026942859629427322 0.10261065342655364 -0.00031804779772855976 69 68 64
0.04039618181978219 0.04835528972748088 0.04918716991847434 149 136 133
-0.018740562877337705 0.037512215810389 -0.006140593149839247 121 116 106
-0.013894771711653812 0.055872238360669256 -0.010266295549257731 89 86 75
0.0233076018132382 0.04789573056671512 -0.006562955402528729 94 93 86
0.02885016817833537 0.09484648112560648 0.013101428541097304 166 162 151
0.04222682571269222 0.060690810442826024 0.04136270808715587 129 121 116
0.00845320175557369 0.04725563374629759 0.0035110797197547643 131 129 113
0.038228060554342774 0.03248908470264109 0.011627784795210379 186 176 168
-9.595385532089443e-05 0.06796837380873295 -0.007346285480371471 122 120 104
-0.0014134557590324036 0.032474068734439365 0.017768894995940584 179 171 160
0.03670248143690354 0.08321821494935094 0.013543728807808648 60 61 53
-0.012264339206394028 0.030446239354339804 -0.006036094569890482 55 49 44
0.020325858005216895 0.03143338988260496 -0.010066801653710553 118 115 107
0.04055850694111261 0.049819470326069946 0.037260165306310496 159 157 142
0.04165363849113713 0.0812817248648454 0.029264057787154983 178 168 163
0.04513711730139894 0.05478482639051973 0.04127965376060426 46 45 38
0.005882680826961906 0.03653817272769764 0.00980953329418899 134 128 116
-0.01200859600692261 0.0242626445321089 -0.00404299702341629 11 7 7
0.03511695160435004 0.03968840974935759 0.05267851308333763 15 9 7
0.04502583044086264 0.08558869576965988 0.022870600653875212 207 200 186
0.03933116568091005 0.10013020310131315 0.01679293209744144 82 84 74
0.04222287189981428 0.07120134898974081 0.03074468854508861 175 166 160
0.004402607372057647 0.07452074527570214 -0.0037696579932901555 195 197 181
0.04836742354185348 0.07324256186535953 0.03724900726789473 7 1 0
0.026631765873746997 0.05529778838855825 0.027569043107149943 98 88 78
0.04147455925056087 0.0799486067092356 0.029860635295059407 179 168 164
0.009010790305606664 0.08567260386091224 -0.0051096525867032425 168 167 147
-0.00879511877505458 0.051277504169873665 -0.004407623983103603 183 182 164
-0.015072613079934242 0.04009212154515208 -0.0034740054693120108 172 173 158
0.04346439027914534 0.06901575614354873 0.0281658834103296 82 83 70
0.028558753992358757 0.10334329331503939 0.01048921221984465 139 134 122
0.03476187694154201 0.043633218186088014 0.01598788926237063 73 69 57
0.00989034235207083 0.03192848186041554 -0.006957425685956601 121 116 111
-0.014394827971790876 0.0358146074357285 -0.0016202955373720925 104 103 87
-0.00799463951332754 0.02907794408779874 -0.0027704347461942444 15 6 5
0.013655091748383514 0.09335645506370133 -0.005070885797975911 170 168 149
0.033587031890519634 0.08956104127450262 0.009154001543097676 107 107 93
0.003947967048065704 0.028599597371845222 0.03427580076180806 148 142 132
0.045329011382495295 0.09039732260141856 0.021658224982901993 205 208 175
0.02055731881562303 0.0985034218216687 -0.005053949271676046 118 118 107
0.019925830229791254 0.09148758906111654 0.003916534392181634 122 121 107
0.04724447901275822 0.025410195251096203 0.00903222895045404 95 94 82
0.042504781840657715 0.05161375915615551 0.023002581042496844 23 22 14
-0.008262702952296402 0.03539001820647509 -0.011929012853769893 84 78 73
0.03670881052149419 0.08037573925614723 0.023252891695055636 160 151 139
0.03188672591453506 0.08494226848132959 0.016019579480019773 182 174 162
0.018389086623169595 0.08891195868091743 0.002312588786314601 113 110 96
-0.017013260735772855 0.021892816054203675 -0.02261008059035856 13 11 8
0.010326017712318983 0.07620506713663937 -0.00700243141804616 105 99 93
0.03726120089880436 0.03594206054339734 0.006090491202148844 168 168 150
0.04345887803208072 0.0786365501968703 0.02495682270062175 73 72 62
0.0068877259645287545 0.025373010325698185 0.03707086881588064 66 60 52
0.026944142299835643 0.057893272455038 0.029506369115651625 136 129 118
0.039509901846050674 0.06386596227116365 0.03432668202863111 104 96 97
0.010418928678076835 0.03106306443567413 0.04135437066888848 129 121 113
0.02081016286917052 0.055964702155077 0.026410965305063774 126 119 111
0.02299505888444513 0.10708155148074677 -0.002941571116403153 2 0 0
0.0049897602060695245 0.039666840940561214 0.005939517531389597 8 4 4
0.03179751924268663 0.05887437837299098 -0.0033350829616994896 41 39 38
0.028608041159915523 0.10139814245797107 0.0020861685892894126 160 168 155
0.01936842837231776 0.03460651161382595 0.027787396629736595 135 127 117
0.04632526726738095 0.08024558497685122 0.027891352899103185 147 146 131
0.03190825700855277 0.04340513461665391 0.04620899331211074 143 133 122
-0.00400479615715975 0.0765069758728997 -0.012968841945557589 119 116 96
0.01401183630647815 0.03673461736624441 0.020027788228908525 154 145 134
0.04320394324858432 0.05122089413075545 0.0501842201971374 9 2 0
0.04026689288321265 0.0481536712197473 0.04953935738259249 148 135 128
0.013499280564238339 0.027717928803040692 0.04606777668329675 9 5 1
0.044197209896605354 0.025570026019651595 -0.0007727332241772896 80 79 74
0.013932223080947768 0.0385552103975785 0.016302083820729046 98 90 75
0.013310644838392704 0.04224866125654025 -0.0006975703409643278 92 85 75
0.004369744693312111 0.027219644552442843 0.03490296346587094 149 144 132
-0.005521367393952044 0.06690530610677722 -0.011328281813984768 142 132 124
0.004728051210801034 0.08282932387226762 -0.010139508253566947 196 186 178
0.042461582787766225 0.06998910889421353 0.02476795709311745 34 26 15
0.010912104207560619 0.035767378720244186 -0.004357941620130953 167 157 149
0.035757469621601604 0.10054844387349633 0.011923734088325262 85 89 88
0.001547394191153039 0.027031763027331856 -0.008129294761390297 108 101 93
0.0066869394905340685 0.08141816405184486 -0.010220569860874919 106 103 96
0.03624901899615308 0.04459752534847092 0.009492880374477453 183 176 165
0.003970153019808088 0.028056824445431495 -0.004399786184067104 190 188 172
-0.01576297877937807 0.021020781400237866 0.047318391358541045 26 23 20
-0.02289940078032649 0.022600893386935845 -0.014329428919963144 2 0 0
0.004183160113172 0.03179597434048154 0.03074756530799815 210 203 192
0.033938619059285254 0.10374267533926997 0.012200920469114456 136 139 126
0.03754115149307563 0.09016058970684525 0.011289107029240825 71 73 66
0.0374789017642718 0.0729356286696314 0.007816611482785828 182 175 164
-0.0009704794886926671 0.03192240285408133 0.004735351056234024 189 186 172
0.010564529377715588 0.043856011928119595 -0.0009230341471329475 82 76 69
0.0018918437737796613 0.028880878729746196 0.03236374682505628 164 153 144
0.037433079228009716 0.09037908292620053 0.018681590879909313 190 178 164
0.021527736171415082 0.04995830946272144 0.02559247630274312 212 204 193
0.03744613602312252 0.07283022180904582 0.020369016148662964 191 191 174
0.02844197164929061 0.10512542191040312 0.00926798534750492 150 143 124
-0.004518457950065305 0.06838104437099624 -0.012922570501686301 91 85 77
0.031095466043940437 0.09095341818197994 0.00559994804607481 69 69 61
0.02861135745642347 0.08475421727514199 0.0050744466450818385 52 50 45
0.02288234874513977 0.038689758267280654 0.04059161341788586 135 126 120
0.015504604536835755 0.038488731993696665 0.021282280653024337 182 173 160
0.03644245318434275 0.09851830698365462 0.014719169033439769 140 127 106
-0.007672929152405463 0.05174971811199567 -0.003453555510075281 168 169 153
0.03687763484660097 0.03995893739318175 0.044616124721381656 25 16 14
-0.00554712863860687 0.05373232457111554 -0.009645834311880937 104 103 98
0.04479817348381236 0.057111715423092 0.04075537280694732 36 34 30
0.04391238385399102 0.08089308626955627 0.022944457289503555 39 36 29
0.020229114371257777 0.033546509536041484 -0.009319009661422463 114 112 104
0.01972781378674606 0.04210718067742637 0.02294581359527115 155 146 132
0.0406864326973909 0.04726293454622499 0.04952682723991221 167 153 142
0.04273336290494939 0.07133971648340728 0.027226324595292204 35 34 28
0.03106111522800473 0.10655522016653204 0.011042498154372032 185 177 145
0.039267402486316764 0.07287659275564626 0.015299336793397724 194 188 173
0.03412721934074605 0.02857643019103847 0.03680875444932618 21 14 8
0.038112249956255624 0.03416879499102302 0.014533937084171554 183 169 159
0.0427872200338858 0.055563247568072786 0.04692798982089243 225 210 198
0.026011839162757098 0.1031703377867388 0.004844645133685679 118 117 102
0.03561754774206459 0.039125144707863574 0.01883011654972846 77 74 60
0.04375959387847748 0.0691581179771857 0.029153829140255133 78 76 69
-0.0027807075265860438 0.07859203592359221 -0.01284174539499789 122 120 103
0.017630680304912046 0.030956624124904415 0.04804237487457773 121 115 108
0.02693953352181555 0.05664330010363282 0.029050382972221546 112 103 96
0.02756130205610708 0.038938435899753765 0.05451566126892131 27 18 12
0.024721940504508298 0.09851180050169671 0.007720661330482018 158 155 144
-0.004351562198423229 0.07259598833848714 -0.01594422960322844 86 81 75
0.004346061287965577 0.031235195779693796 -0.003166513643228457 151 147 134
